4.4040774e+00   4.3800672e+00   4.3557953e+00   4.3312640e+00   4.3064760e+00   4.2814336e+00   4.2561394e+00   4.2305959e+00   4.2048056e+00   4.1787710e+00   4.1524948e+00   4.1259793e+00   4.0992272e+00   4.0722409e+00   4.0450231e+00   4.0175762e+00   3.9899029e+00   3.9620056e+00   3.9338870e+00   3.9055496e+00   3.8769959e+00   3.8482286e+00   3.8192501e+00   3.7900632e+00   3.7606702e+00   3.7310739e+00   3.7012768e+00   3.6712815e+00   3.6410906e+00   3.6107066e+00   3.5801322e+00   3.5493699e+00   3.5184224e+00   3.4872921e+00   3.4559818e+00   3.4244940e+00   3.3928312e+00   3.3609962e+00   3.3289915e+00   3.2968196e+00   3.2644832e+00   3.2319850e+00   3.1993274e+00   3.1665130e+00   3.1335446e+00   3.1004246e+00   3.0671557e+00   3.0337404e+00   3.0001814e+00   2.9664812e+00   2.9326425e+00   2.8986678e+00   2.8645597e+00   2.8303208e+00   2.7959538e+00   2.7614610e+00   2.7268453e+00   2.6921091e+00   2.6572550e+00   2.6222856e+00   2.5872034e+00   2.5520111e+00   2.5167112e+00   2.4813063e+00   2.4457989e+00   2.4101915e+00   2.3744869e+00   2.3386874e+00   2.3027957e+00   2.2668143e+00   2.2307457e+00   2.1945924e+00   2.1583571e+00   2.1220422e+00   2.0856503e+00   2.0491839e+00   2.0126454e+00   1.9760375e+00   1.9393626e+00   1.9026232e+00   1.8658218e+00   1.8289609e+00   1.7920430e+00   1.7550705e+00   1.7180460e+00   1.6809720e+00   1.6438507e+00   1.6066849e+00   1.5694768e+00   1.5322289e+00   1.4949438e+00   1.4576237e+00   1.4202711e+00   1.3828885e+00   1.3454782e+00   1.3080427e+00   1.2705844e+00   1.2331056e+00   1.1956087e+00   1.1580962e+00   1.1205703e+00   1.0830335e+00   1.0454880e+00   1.0079363e+00   9.7038066e-01   9.3282341e-01   8.9526688e-01   8.5771338e-01   8.2016521e-01   7.8262467e-01   7.4509404e-01   7.0757560e-01   6.7007161e-01   6.3258434e-01   5.9511604e-01   5.5766894e-01   5.2024527e-01   4.8284726e-01   4.4547711e-01   4.0813703e-01   3.7082921e-01   3.3355583e-01   2.9631906e-01   2.5912106e-01   2.2196399e-01   1.8484997e-01   1.4778115e-01   1.1075964e-01   7.3787550e-02   3.6866974e-02  -1.7276451e-19   1.5465166e-17   9.4762987e-09   1.5225366e-08   2.0964461e-08   2.6693614e-08   3.2412750e-08   3.8121794e-08   4.3820673e-08   4.9509311e-08   5.5187633e-08   6.0855561e-08   6.6513018e-08   7.2159929e-08   7.7796214e-08   8.3421795e-08   8.9036593e-08   9.4640528e-08   1.0023352e-07   1.0581549e-07   1.1138635e-07   1.1694603e-07   1.2249444e-07   1.2803149e-07   1.3355711e-07   1.3907121e-07   1.4457371e-07   1.5006451e-07   1.5554354e-07   1.6101071e-07   1.6646593e-07   1.7190911e-07   1.7734016e-07   1.8275900e-07   1.8816554e-07   1.9355968e-07   1.9894134e-07   2.0431042e-07   2.0966684e-07   2.1501050e-07   2.2034130e-07   2.2565915e-07   2.3096397e-07   2.3625565e-07   2.4153410e-07   2.4679922e-07   2.5205091e-07   2.5728908e-07   2.6251364e-07   2.6772447e-07   2.7292148e-07   2.7810457e-07   2.8327365e-07   2.8842860e-07   2.9356933e-07   2.9869573e-07
4.3594008e+00   4.3356266e+00   4.3115932e+00   4.2873032e+00   4.2627589e+00   4.2379629e+00   4.2129177e+00   4.1876258e+00   4.1620896e+00   4.1363116e+00   4.1102944e+00   4.0840405e+00   4.0575524e+00   4.0308325e+00   4.0038835e+00   3.9767079e+00   3.9493081e+00   3.9216867e+00   3.8938462e+00   3.8657893e+00   3.8375184e+00   3.8090360e+00   3.7803447e+00   3.7514472e+00   3.7223458e+00   3.6930432e+00   3.6635420e+00   3.6338446e+00   3.6039537e+00   3.5738718e+00   3.5436015e+00   3.5131454e+00   3.4825059e+00   3.4516858e+00   3.4206875e+00   3.3895136e+00   3.3581667e+00   3.3266494e+00   3.2949642e+00   3.2631137e+00   3.2311005e+00   3.1989272e+00   3.1665963e+00   3.1341104e+00   3.1014721e+00   3.0686839e+00   3.0357485e+00   3.0026683e+00   2.9694460e+00   2.9360841e+00   2.9025852e+00   2.8689519e+00   2.8351867e+00   2.8012922e+00   2.7672710e+00   2.7331256e+00   2.6988585e+00   2.6644724e+00   2.6299697e+00   2.5953531e+00   2.5606251e+00   2.5257882e+00   2.4908449e+00   2.4557979e+00   2.4206496e+00   2.3854026e+00   2.3500594e+00   2.3146226e+00   2.2790946e+00   2.2434780e+00   2.2077753e+00   2.1719891e+00   2.1361217e+00   2.1001758e+00   2.0641538e+00   2.0280582e+00   1.9918916e+00   1.9556563e+00   1.9193550e+00   1.8829900e+00   1.8465638e+00   1.8100789e+00   1.7735378e+00   1.7369429e+00   1.7002967e+00   1.6636016e+00   1.6268600e+00   1.5900744e+00   1.5532472e+00   1.5163808e+00   1.4794777e+00   1.4425402e+00   1.4055708e+00   1.3685718e+00   1.3315456e+00   1.2944946e+00   1.2574212e+00   1.2203278e+00   1.1832167e+00   1.1460902e+00   1.1089507e+00   1.0718006e+00   1.0346421e+00   9.9747756e-01   9.6030935e-01   9.2313973e-01   8.8597100e-01   8.4880546e-01   8.1164537e-01   7.7449300e-01   7.3735062e-01   7.0022049e-01   6.6310483e-01   6.2600589e-01   5.8892590e-01   5.5186706e-01   5.1483158e-01   4.7782166e-01   4.4083949e-01   4.0388724e-01   3.6696708e-01   3.3008117e-01   2.9323166e-01   2.5642068e-01   2.1965035e-01   1.8292280e-01   1.4624013e-01   1.0960444e-01   7.3017805e-02   3.6482304e-02  -2.2388918e-18   1.5464679e-17   9.4645988e-09   1.5204151e-08   2.0933683e-08   2.6653220e-08   3.2362691e-08   3.8062022e-08   4.3751138e-08   4.9429965e-08   5.5098426e-08   6.0756447e-08   6.6403951e-08   7.2040860e-08   7.7667098e-08   8.3282587e-08   8.8887247e-08   9.4480999e-08   1.0006376e-07   1.0563546e-07   1.1119601e-07   1.1674533e-07   1.2228334e-07   1.2780996e-07   1.3332510e-07   1.3882868e-07   1.4432061e-07   1.4980081e-07   1.5526920e-07   1.6072569e-07   1.6617019e-07   1.7160262e-07   1.7702289e-07   1.8243090e-07   1.8782658e-07   1.9320983e-07   1.9858056e-07   2.0393869e-07   2.0928411e-07   2.1461674e-07   2.1993649e-07   2.2524326e-07   2.3053696e-07   2.3581749e-07   2.4108477e-07   2.4633868e-07   2.5157915e-07   2.5680607e-07   2.6201934e-07   2.6721887e-07   2.7240455e-07   2.7757629e-07   2.8273399e-07   2.8787755e-07   2.9300686e-07   2.9812182e-07
4.3151886e+00   4.2916480e+00   4.2678508e+00   4.2437996e+00   4.2194968e+00   4.1949448e+00   4.1701461e+00   4.1451033e+00   4.1198186e+00   4.0942948e+00   4.0685341e+00   4.0425392e+00   4.0163124e+00   3.9898564e+00   3.9631735e+00   3.9362663e+00   3.9091374e+00   3.8817891e+00   3.8542241e+00   3.8264449e+00   3.7984539e+00   3.7702537e+00   3.7418468e+00   3.7132357e+00   3.6844230e+00   3.6554112e+00   3.6262029e+00   3.5968005e+00   3.5672066e+00   3.5374238e+00   3.5074546e+00   3.4773015e+00   3.4469670e+00   3.4164539e+00   3.3857644e+00   3.3549013e+00   3.3238671e+00   3.2926643e+00   3.2612954e+00   3.2297631e+00   3.1980698e+00   3.1662182e+00   3.1342107e+00   3.1020499e+00   3.0697383e+00   3.0372786e+00   3.0046732e+00   2.9719248e+00   2.9390358e+00   2.9060087e+00   2.8728462e+00   2.8395508e+00   2.8061250e+00   2.7725714e+00   2.7388925e+00   2.7050908e+00   2.6711688e+00   2.6371292e+00   2.6029744e+00   2.5687069e+00   2.5343294e+00   2.4998442e+00   2.4652539e+00   2.4305611e+00   2.3957683e+00   2.3608778e+00   2.3258924e+00   2.2908144e+00   2.2556464e+00   2.2203909e+00   2.1850503e+00   2.1496272e+00   2.1141240e+00   2.0785432e+00   2.0428873e+00   2.0071587e+00   1.9713600e+00   1.9354935e+00   1.8995618e+00   1.8635673e+00   1.8275124e+00   1.7913996e+00   1.7552313e+00   1.7190100e+00   1.6827380e+00   1.6464179e+00   1.6100519e+00   1.5736426e+00   1.5371923e+00   1.5007033e+00   1.4641782e+00   1.4276193e+00   1.3910289e+00   1.3544095e+00   1.3177633e+00   1.2810928e+00   1.2444003e+00   1.2076881e+00   1.1709586e+00   1.1342140e+00   1.0974568e+00   1.0606892e+00   1.0239136e+00   9.8713211e-01   9.5034718e-01   9.1356104e-01   8.7677595e-01   8.3999419e-01   8.0321801e-01   7.6644964e-01   7.2969134e-01   6.9294532e-01   6.5621380e-01   6.1949900e-01   5.8280311e-01   5.4612834e-01   5.0947685e-01   4.7285082e-01   4.3625242e-01   3.9968379e-01   3.6314708e-01   3.2664443e-01   2.9017796e-01   2.5374978e-01   2.1736199e-01   1.8101669e-01   1.4471596e-01   1.0846187e-01   7.2256481e-02   3.6101845e-02   8.0980812e-19   1.5464116e-17   9.4530759e-09   1.5183269e-08   2.0903391e-08   2.6613470e-08   3.2313434e-08   3.8003210e-08   4.3682723e-08   4.9351900e-08   5.5010665e-08   6.0658942e-08   6.6296657e-08   7.1923732e-08   7.7540090e-08   8.3145655e-08   8.8740347e-08   9.4324088e-08   9.9896799e-08   1.0545840e-07   1.1100881e-07   1.1654795e-07   1.2207574e-07   1.2759209e-07   1.3309693e-07   1.3859017e-07   1.4407172e-07   1.4954151e-07   1.5499944e-07   1.6044544e-07   1.6587941e-07   1.7130127e-07   1.7671094e-07   1.8210832e-07   1.8749333e-07   1.9286588e-07   1.9822588e-07   2.0357323e-07   2.0890786e-07   2.1422966e-07   2.1953855e-07   2.2483443e-07   2.3011721e-07   2.3538680e-07   2.4064310e-07   2.4588602e-07   2.5111546e-07   2.5633133e-07   2.6153352e-07   2.6672195e-07   2.7189651e-07   2.7705711e-07   2.8220364e-07   2.8733601e-07   2.9245411e-07   2.9755784e-07
4.2714356e+00   4.2481263e+00   4.2245631e+00   4.2007483e+00   4.1766846e+00   4.1523742e+00   4.1278197e+00   4.1030234e+00   4.0779879e+00   4.0527156e+00   4.0272090e+00   4.0014704e+00   3.9755025e+00   3.9493076e+00   3.9228883e+00   3.8962470e+00   3.8693862e+00   3.8423084e+00   3.8150161e+00   3.7875118e+00   3.7597979e+00   3.7318770e+00   3.7037517e+00   3.6754243e+00   3.6468974e+00   3.6181735e+00   3.5892551e+00   3.5601447e+00   3.5308449e+00   3.5013582e+00   3.4716870e+00   3.4418339e+00   3.4118015e+00   3.3815922e+00   3.3512086e+00   3.3206531e+00   3.2899284e+00   3.2590370e+00   3.2279812e+00   3.1967638e+00   3.1653872e+00   3.1338540e+00   3.1021666e+00   3.0703276e+00   3.0383396e+00   3.0062050e+00   2.9739263e+00   2.9415062e+00   2.9089471e+00   2.8762515e+00   2.8434219e+00   2.8104610e+00   2.7773711e+00   2.7441549e+00   2.7108148e+00   2.6773533e+00   2.6437729e+00   2.6100762e+00   2.5762657e+00   2.5423438e+00   2.5083131e+00   2.4741760e+00   2.4399351e+00   2.4055929e+00   2.3711518e+00   2.3366143e+00   2.3019829e+00   2.2672600e+00   2.2324483e+00   2.1975501e+00   2.1625678e+00   2.1275040e+00   2.0923612e+00   2.0571417e+00   2.0218481e+00   1.9864827e+00   1.9510480e+00   1.9155465e+00   1.8799806e+00   1.8443527e+00   1.8086652e+00   1.7729206e+00   1.7371212e+00   1.7012696e+00   1.6653679e+00   1.6294188e+00   1.5934245e+00   1.5573874e+00   1.5213100e+00   1.4851946e+00   1.4490435e+00   1.4128591e+00   1.3766437e+00   1.3403998e+00   1.3041296e+00   1.2678355e+00   1.2315198e+00   1.1951848e+00   1.1588328e+00   1.1224662e+00   1.0860872e+00   1.0496981e+00   1.0133011e+00   9.7689865e-01   9.4049289e-01   9.0408611e-01   8.6768056e-01   8.3127846e-01   7.9488206e-01   7.5849356e-01   7.2211519e-01   6.8574915e-01   6.4939763e-01   6.1306283e-01   5.7674691e-01   5.4045204e-01   5.0418038e-01   4.6793409e-01   4.3171530e-01   3.9552613e-01   3.5936872e-01   3.2324516e-01   2.8715757e-01   2.5110803e-01   2.1509861e-01   1.7913140e-01   1.4320844e-01   1.0733179e-01   7.1503481e-02   3.5725546e-02   2.9960523e-18   1.5464206e-17   9.4417265e-09   1.5162710e-08   2.0873575e-08   2.6574349e-08   3.2264961e-08   3.7945337e-08   4.3615405e-08   4.9275089e-08   5.4924316e-08   6.0563011e-08   6.6191098e-08   7.1808501e-08   7.7415144e-08   8.3010949e-08   8.8595839e-08   9.4169735e-08   9.9732560e-08   1.0528423e-07   1.1082468e-07   1.1635381e-07   1.2187155e-07   1.2737781e-07   1.3287252e-07   1.3835560e-07   1.4382695e-07   1.4928649e-07   1.5473415e-07   1.6016984e-07   1.6559346e-07   1.7100494e-07   1.7640419e-07   1.8179113e-07   1.8716565e-07   1.9252769e-07   1.9787714e-07   2.0321391e-07   2.0853793e-07   2.1384909e-07   2.1914732e-07   2.2443250e-07   2.2970456e-07   2.3496340e-07   2.4020892e-07   2.4544104e-07   2.5065965e-07   2.5586466e-07   2.6105598e-07   2.6623351e-07   2.7139715e-07   2.7654680e-07   2.8168237e-07   2.8680375e-07   2.9191085e-07   2.9700356e-07
4.2281369e+00   4.2050566e+00   4.1817250e+00   4.1581445e+00   4.1343174e+00   4.1102463e+00   4.0859335e+00   4.0613815e+00   4.0365926e+00   4.0115694e+00   3.9863143e+00   3.9608296e+00   3.9351179e+00   3.9091817e+00   3.8830233e+00   3.8566452e+00   3.8300499e+00   3.8032399e+00   3.7762176e+00   3.7489854e+00   3.7215460e+00   3.6939017e+00   3.6660550e+00   3.6380085e+00   3.6097645e+00   3.5813256e+00   3.5526943e+00   3.5238731e+00   3.4948644e+00   3.4656708e+00   3.4362947e+00   3.4067387e+00   3.3770052e+00   3.3470967e+00   3.3170158e+00   3.2867650e+00   3.2563466e+00   3.2257634e+00   3.1950176e+00   3.1641120e+00   3.1330489e+00   3.1018308e+00   3.0704603e+00   3.0389399e+00   3.0072721e+00   2.9754593e+00   2.9435040e+00   2.9114089e+00   2.8791763e+00   2.8468088e+00   2.8143088e+00   2.7816789e+00   2.7489216e+00   2.7160393e+00   2.6830345e+00   2.6499097e+00   2.6166675e+00   2.5833102e+00   2.5498404e+00   2.5162605e+00   2.4825731e+00   2.4487806e+00   2.4148855e+00   2.3808901e+00   2.3467971e+00   2.3126089e+00   2.2783279e+00   2.2439566e+00   2.2094973e+00   2.1749527e+00   2.1403251e+00   2.1056170e+00   2.0708307e+00   2.0359688e+00   2.0010337e+00   1.9660277e+00   1.9309533e+00   1.8958129e+00   1.8606090e+00   1.8253438e+00   1.7900199e+00   1.7546396e+00   1.7192053e+00   1.6837194e+00   1.6481842e+00   1.6126022e+00   1.5769756e+00   1.5413069e+00   1.5055985e+00   1.4698525e+00   1.4340715e+00   1.3982577e+00   1.3624134e+00   1.3265411e+00   1.2906429e+00   1.2547212e+00   1.2187783e+00   1.1828165e+00   1.1468380e+00   1.1108452e+00   1.0748404e+00   1.0388257e+00   1.0028034e+00   9.6677586e-01   9.3074523e-01   8.9471375e-01   8.5868366e-01   8.2265715e-01   7.8663645e-01   7.5062375e-01   7.1462123e-01   6.7863108e-01   6.4265546e-01   6.0669655e-01   5.7075649e-01   5.3483743e-01   4.9894151e-01   4.6307084e-01   4.2722755e-01   3.9141373e-01   3.5563150e-01   3.1988293e-01   2.8417010e-01   2.4849507e-01   2.1285992e-01   1.7726667e-01   1.4171737e-01   1.0621404e-01   7.0758705e-02   3.5353359e-02   2.9910838e-18   1.5464471e-17   9.4305470e-09   1.5142469e-08   2.0844225e-08   2.6535844e-08   3.2217255e-08   3.7888384e-08   4.3549158e-08   4.9199505e-08   5.4839350e-08   6.0468619e-08   6.6087236e-08   7.1695126e-08   7.7292213e-08   8.2878420e-08   8.8453670e-08   9.4017886e-08   9.9570989e-08   1.0511290e-07   1.1064354e-07   1.1616283e-07   1.2167069e-07   1.2716704e-07   1.3265179e-07   1.3812487e-07   1.4358620e-07   1.4903568e-07   1.5447324e-07   1.5989878e-07   1.6531224e-07   1.7071352e-07   1.7610253e-07   1.8147919e-07   1.8684342e-07   1.9219512e-07   1.9753421e-07   2.0286059e-07   2.0817418e-07   2.1347490e-07   2.1876264e-07   2.2403731e-07   2.2929884e-07   2.3454711e-07   2.3978205e-07   2.4500356e-07   2.5021153e-07   2.5540589e-07   2.6058652e-07   2.6575335e-07   2.7090626e-07   2.7604517e-07   2.8116997e-07   2.8628057e-07   2.9137686e-07   2.9645875e-07
4.1852876e+00   4.1624341e+00   4.1393318e+00   4.1159831e+00   4.0923905e+00   4.0685563e+00   4.0444828e+00   4.0201726e+00   3.9956280e+00   3.9708514e+00   3.9458453e+00   3.9206120e+00   3.8951541e+00   3.8694739e+00   3.8435738e+00   3.8174564e+00   3.7911240e+00   3.7645790e+00   3.7378241e+00   3.7108615e+00   3.6836937e+00   3.6563232e+00   3.6287525e+00   3.6009840e+00   3.5730202e+00   3.5448635e+00   3.5165164e+00   3.4879814e+00   3.4592609e+00   3.4303575e+00   3.4012735e+00   3.3720115e+00   3.3425740e+00   3.3129634e+00   3.2831822e+00   3.2532328e+00   3.2231178e+00   3.1928396e+00   3.1624008e+00   3.1318037e+00   3.1010509e+00   3.0701449e+00   3.0390881e+00   3.0078830e+00   2.9765321e+00   2.9450379e+00   2.9134028e+00   2.8816293e+00   2.8497200e+00   2.8176772e+00   2.7855034e+00   2.7532012e+00   2.7207730e+00   2.6882212e+00   2.6555483e+00   2.6227568e+00   2.5898492e+00   2.5568279e+00   2.5236953e+00   2.4904540e+00   2.4571063e+00   2.4236548e+00   2.3901019e+00   2.3564499e+00   2.3227014e+00   2.2888589e+00   2.2549246e+00   2.2209011e+00   2.1867908e+00   2.1525961e+00   2.1183195e+00   2.0839633e+00   2.0495299e+00   2.0150219e+00   1.9804415e+00   1.9457911e+00   1.9110733e+00   1.8762903e+00   1.8414445e+00   1.8065383e+00   1.7715742e+00   1.7365544e+00   1.7014813e+00   1.6663573e+00   1.6311847e+00   1.5959659e+00   1.5607033e+00   1.5253991e+00   1.4900557e+00   1.4546754e+00   1.4192605e+00   1.3838133e+00   1.3483362e+00   1.3128315e+00   1.2773013e+00   1.2417481e+00   1.2061740e+00   1.1705814e+00   1.1349725e+00   1.0993496e+00   1.0637149e+00   1.0280707e+00   9.9241913e-01   9.5676248e-01   9.2110296e-01   8.8544277e-01   8.4978411e-01   8.1412917e-01   7.7848014e-01   7.4283919e-01   7.0720848e-01   6.7159018e-01   6.3598642e-01   6.0039936e-01   5.6483111e-01   5.2928380e-01   4.9375955e-01   4.5826044e-01   4.2278859e-01   3.8734606e-01   3.5193494e-01   3.1655729e-01   2.8121515e-01   2.4591059e-01   2.1064562e-01   1.7542227e-01   1.4024256e-01   1.0510849e-01   7.0022058e-02   3.4985236e-02   2.3874698e-18   1.5464535e-17   9.4195340e-09   1.5122539e-08   2.0815332e-08   2.6497942e-08   3.2170299e-08   3.7832330e-08   4.3483961e-08   4.9125122e-08   5.4755737e-08   6.0375732e-08   6.5985034e-08   7.1583566e-08   7.7171254e-08   8.2748021e-08   8.8313790e-08   9.3868485e-08   9.9412027e-08   1.0494434e-07   1.1046534e-07   1.1597495e-07   1.2147310e-07   1.2695970e-07   1.3243466e-07   1.3789792e-07   1.4334938e-07   1.4878897e-07   1.5421659e-07   1.5963218e-07   1.6503564e-07   1.7042689e-07   1.7580584e-07   1.8117241e-07   1.8652651e-07   1.9186805e-07   1.9719696e-07   2.0251313e-07   2.0781648e-07   2.1310692e-07   2.1838436e-07   2.2364872e-07   2.2889989e-07   2.3413779e-07   2.3936233e-07   2.4457341e-07   2.4977093e-07   2.5495482e-07   2.6012496e-07   2.6528127e-07   2.7042365e-07   2.7555200e-07   2.8066623e-07   2.8576624e-07   2.9085192e-07   2.9592318e-07
4.1428827e+00   4.1202538e+00   4.0973786e+00   4.0742596e+00   4.0508990e+00   4.0272993e+00   4.0034629e+00   3.9793921e+00   3.9550893e+00   3.9305570e+00   3.9057974e+00   3.8808131e+00   3.8556064e+00   3.8301797e+00   3.8045354e+00   3.7786760e+00   3.7526039e+00   3.7263215e+00   3.6998312e+00   3.6731354e+00   3.6462366e+00   3.6191373e+00   3.5918398e+00   3.5643465e+00   3.5366601e+00   3.5087827e+00   3.4807170e+00   3.4524654e+00   3.4240303e+00   3.3954141e+00   3.3666194e+00   3.3376485e+00   3.3085039e+00   3.2791882e+00   3.2497036e+00   3.2200527e+00   3.1902380e+00   3.1602619e+00   3.1301268e+00   3.0998352e+00   3.0693896e+00   3.0387925e+00   3.0080462e+00   2.9771532e+00   2.9461161e+00   2.9149372e+00   2.8836190e+00   2.8521640e+00   2.8205745e+00   2.7888532e+00   2.7570023e+00   2.7250244e+00   2.6929219e+00   2.6606973e+00   2.6283530e+00   2.5958914e+00   2.5633149e+00   2.5306261e+00   2.4978274e+00   2.4649211e+00   2.4319097e+00   2.3987957e+00   2.3655814e+00   2.3322693e+00   2.2988618e+00   2.2653613e+00   2.2317702e+00   2.1980910e+00   2.1643260e+00   2.1304776e+00   2.0965483e+00   2.0625403e+00   2.0284562e+00   1.9942983e+00   1.9600690e+00   1.9257706e+00   1.8914056e+00   1.8569762e+00   1.8224849e+00   1.7879339e+00   1.7533257e+00   1.7186627e+00   1.6839470e+00   1.6491811e+00   1.6143674e+00   1.5795080e+00   1.5446054e+00   1.5096619e+00   1.4746797e+00   1.4396611e+00   1.4046086e+00   1.3695242e+00   1.3344104e+00   1.2992693e+00   1.2641033e+00   1.2289146e+00   1.1937055e+00   1.1584782e+00   1.1232350e+00   1.0879780e+00   1.0527095e+00   1.0174318e+00   9.8214694e-01   9.4685724e-01   9.1156486e-01   8.7627198e-01   8.4098079e-01   8.0569343e-01   7.7041209e-01   7.3513890e-01   6.9987601e-01   6.6462556e-01   6.2938966e-01   5.9417044e-01   5.5896999e-01   5.2379043e-01   4.8863384e-01   4.5350229e-01   4.1839785e-01   3.8332260e-01   3.4827857e-01   3.1326782e-01   2.7829236e-01   2.4335423e-01   2.0845543e-01   1.7359796e-01   1.3878383e-01   1.0401500e-01   6.9293443e-02   3.4621128e-02   2.6011558e-18   1.5464353e-17   9.4086843e-09   1.5102913e-08   2.0786885e-08   2.6460631e-08   3.2124078e-08   3.7777156e-08   4.3419792e-08   4.9051913e-08   5.4673447e-08   6.0284319e-08   6.5884456e-08   7.1473783e-08   7.7052225e-08   8.2619705e-08   8.8176149e-08   9.3721479e-08   9.9255617e-08   1.0477849e-07   1.1029001e-07   1.1579011e-07   1.2127870e-07   1.2675570e-07   1.3222105e-07   1.3767464e-07   1.4311641e-07   1.4854627e-07   1.5396413e-07   1.5936992e-07   1.6476355e-07   1.7014494e-07   1.7551400e-07   1.8087065e-07   1.8621480e-07   1.9154636e-07   1.9686526e-07   2.0217139e-07   2.0746467e-07   2.1274502e-07   2.1801235e-07   2.2326656e-07   2.2850756e-07   2.3373526e-07   2.3894958e-07   2.4415042e-07   2.4933768e-07   2.5451128e-07   2.5967112e-07   2.6481710e-07   2.6994913e-07   2.7506711e-07   2.8017095e-07   2.8526056e-07   2.9033582e-07   2.9539664e-07
4.1009174e+00   4.0785109e+00   4.0558606e+00   4.0329689e+00   4.0098382e+00   3.9864708e+00   3.9628691e+00   3.9390354e+00   3.9149721e+00   3.8906815e+00   3.8661661e+00   3.8414282e+00   3.8164703e+00   3.7912946e+00   3.7659036e+00   3.7402997e+00   3.7144853e+00   3.6884628e+00   3.6622345e+00   3.6358030e+00   3.6091705e+00   3.5823396e+00   3.5553125e+00   3.5280919e+00   3.5006800e+00   3.4730792e+00   3.4452921e+00   3.4173210e+00   3.3891684e+00   3.3608367e+00   3.3323282e+00   3.3036455e+00   3.2747910e+00   3.2457671e+00   3.2165763e+00   3.1872209e+00   3.1577034e+00   3.1280263e+00   3.0981919e+00   3.0682028e+00   3.0380613e+00   3.0077698e+00   2.9773309e+00   2.9467470e+00   2.9160204e+00   2.8851536e+00   2.8541491e+00   2.8230093e+00   2.7917365e+00   2.7603333e+00   2.7288021e+00   2.6971452e+00   2.6653652e+00   2.6334644e+00   2.6014452e+00   2.5693101e+00   2.5370615e+00   2.5047018e+00   2.4722334e+00   2.4396587e+00   2.4069801e+00   2.3742001e+00   2.3413210e+00   2.3083453e+00   2.2752752e+00   2.2421133e+00   2.2088619e+00   2.1755233e+00   2.1421000e+00   2.1085944e+00   2.0750088e+00   2.0413455e+00   2.0076071e+00   1.9737957e+00   1.9399138e+00   1.9059637e+00   1.8719477e+00   1.8378683e+00   1.8037277e+00   1.7695283e+00   1.7352724e+00   1.7009623e+00   1.6666003e+00   1.6321888e+00   1.5977301e+00   1.5632264e+00   1.5286801e+00   1.4940934e+00   1.4594686e+00   1.4248080e+00   1.3901139e+00   1.3553885e+00   1.3206341e+00   1.2858529e+00   1.2510472e+00   1.2162192e+00   1.1813712e+00   1.1465053e+00   1.1116238e+00   1.0767289e+00   1.0418227e+00   1.0069075e+00   9.7198554e-01   9.3705888e-01   9.0212973e-01   8.6720024e-01   8.3227257e-01   7.9734887e-01   7.6243127e-01   7.2752191e-01   6.9262289e-01   6.5773633e-01   6.2286434e-01   5.8800900e-01   5.5317240e-01   5.1835662e-01   4.8356372e-01   4.4879576e-01   4.1405478e-01   3.7934282e-01   3.4466192e-01   3.1001409e-01   2.7540134e-01   2.4082567e-01   2.0628907e-01   1.7179351e-01   1.3734097e-01   1.0293341e-01   6.8572766e-02   3.4260988e-02   3.2719042e-18   1.5464136e-17   9.3979945e-09   1.5083585e-08   2.0758876e-08   2.6423897e-08   3.2078577e-08   3.7722844e-08   4.3356627e-08   4.8979854e-08   5.4592453e-08   6.0194349e-08   6.5785469e-08   7.1365739e-08   7.6935084e-08   8.2493429e-08   8.8040698e-08   9.3576816e-08   9.9101704e-08   1.0461529e-07   1.1011749e-07   1.1560822e-07   1.2108742e-07   1.2655499e-07   1.3201087e-07   1.3745496e-07   1.4288720e-07   1.4830749e-07   1.5371576e-07   1.5911192e-07   1.6449588e-07   1.6986758e-07   1.7522692e-07   1.8057381e-07   1.8590818e-07   1.9122993e-07   1.9653898e-07   2.0183525e-07   2.0711864e-07   2.1238907e-07   2.1764645e-07   2.2289069e-07   2.2812170e-07   2.3333938e-07   2.3854366e-07   2.4373443e-07   2.4891161e-07   2.5407510e-07   2.5922481e-07   2.6436064e-07   2.6948251e-07   2.7459031e-07   2.7968395e-07   2.8476333e-07   2.8982835e-07   2.9487893e-07
4.0593870e+00   4.0372007e+00   4.0147731e+00   3.9921066e+00   3.9692035e+00   3.9460661e+00   3.9226967e+00   3.8990977e+00   3.8752715e+00   3.8512204e+00   3.8269468e+00   3.8024529e+00   3.7777413e+00   3.7528142e+00   3.7276740e+00   3.7023230e+00   3.6767638e+00   3.6509986e+00   3.6250298e+00   3.5988598e+00   3.5724910e+00   3.5459258e+00   3.5191666e+00   3.4922158e+00   3.4650757e+00   3.4377488e+00   3.4102375e+00   3.3825442e+00   3.3546712e+00   3.3266210e+00   3.2983961e+00   3.2699987e+00   3.2414313e+00   3.2126964e+00   3.1837963e+00   3.1547334e+00   3.1255102e+00   3.0961290e+00   3.0665924e+00   3.0369026e+00   3.0070621e+00   2.9770734e+00   2.9469387e+00   2.9166606e+00   2.8862415e+00   2.8556837e+00   2.8249897e+00   2.7941618e+00   2.7632026e+00   2.7321143e+00   2.7008994e+00   2.6695603e+00   2.6380994e+00   2.6065191e+00   2.5748218e+00   2.5430098e+00   2.5110857e+00   2.4790517e+00   2.4469103e+00   2.4146638e+00   2.3823147e+00   2.3498652e+00   2.3173179e+00   2.2846750e+00   2.2519390e+00   2.2191121e+00   2.1861968e+00   2.1531954e+00   2.1201103e+00   2.0869439e+00   2.0536984e+00   2.0203763e+00   1.9869798e+00   1.9535114e+00   1.9199733e+00   1.8863678e+00   1.8526974e+00   1.8189643e+00   1.7851708e+00   1.7513192e+00   1.7174119e+00   1.6834511e+00   1.6494391e+00   1.6153783e+00   1.5812708e+00   1.5471191e+00   1.5129253e+00   1.4786917e+00   1.4444205e+00   1.4101141e+00   1.3757747e+00   1.3414045e+00   1.3070057e+00   1.2725806e+00   1.2381314e+00   1.2036603e+00   1.1691695e+00   1.1346611e+00   1.1001375e+00   1.0656008e+00   1.0310532e+00   9.9649672e-01   9.6193367e-01   9.2736618e-01   8.9279637e-01   8.5822639e-01   8.2365837e-01   7.8909443e-01   7.5453668e-01   7.1998724e-01   6.8544819e-01   6.5092162e-01   6.1640962e-01   5.8191426e-01   5.4743759e-01   5.1298167e-01   4.7854855e-01   4.4414025e-01   4.0975880e-01   3.7540623e-01   3.4108453e-01   3.0679569e-01   2.7254172e-01   2.3832458e-01   2.0414625e-01   1.7000868e-01   1.3591381e-01   1.0186359e-01   6.7859934e-02   3.3904770e-02   3.9829700e-18   1.5463998e-17   9.3874616e-09   1.5064550e-08   2.0731296e-08   2.6387729e-08   3.2033780e-08   3.7669376e-08   4.3294447e-08   4.8908922e-08   5.4512727e-08   6.0105790e-08   6.5688037e-08   7.1259396e-08   7.6819791e-08   8.2369148e-08   8.7907391e-08   9.3434446e-08   9.8950235e-08   1.0445468e-07   1.0994771e-07   1.1542924e-07   1.2089919e-07   1.2635749e-07   1.3180406e-07   1.3723881e-07   1.4266167e-07   1.4807255e-07   1.5347138e-07   1.5885807e-07   1.6423254e-07   1.6959470e-07   1.7494448e-07   1.8028178e-07   1.8560653e-07   1.9091864e-07   1.9621802e-07   2.0150459e-07   2.0677825e-07   2.1203893e-07   2.1728653e-07   2.2252097e-07   2.2774216e-07   2.3295000e-07   2.3814441e-07   2.4332529e-07   2.4849256e-07   2.5364611e-07   2.5878587e-07   2.6391174e-07   2.6902361e-07   2.7412140e-07   2.7920502e-07   2.8427436e-07   2.8932933e-07   2.9436983e-07
4.0182869e+00   3.9963186e+00   3.9741115e+00   3.9516679e+00   3.9289901e+00   3.9060805e+00   3.8829412e+00   3.8595747e+00   3.8359833e+00   3.8121692e+00   3.7881350e+00   3.7638828e+00   3.7394150e+00   3.7147339e+00   3.6898420e+00   3.6647416e+00   3.6394350e+00   3.6139245e+00   3.5882126e+00   3.5623016e+00   3.5361939e+00   3.5098918e+00   3.4833978e+00   3.4567141e+00   3.4298432e+00   3.4027874e+00   3.3755492e+00   3.3481308e+00   3.3205347e+00   3.2927633e+00   3.2648190e+00   3.2367040e+00   3.2084209e+00   3.1799721e+00   3.1513598e+00   3.1225865e+00   3.0936546e+00   3.0645665e+00   3.0353245e+00   3.0059311e+00   2.9763886e+00   2.9466994e+00   2.9168660e+00   2.8868907e+00   2.8567758e+00   2.8265239e+00   2.7961372e+00   2.7656182e+00   2.7349692e+00   2.7041927e+00   2.6732909e+00   2.6422664e+00   2.6111214e+00   2.5798583e+00   2.5484795e+00   2.5169875e+00   2.4853845e+00   2.4536729e+00   2.4218551e+00   2.3899335e+00   2.3579104e+00   2.3257881e+00   2.2935691e+00   2.2612557e+00   2.2288502e+00   2.1963549e+00   2.1637723e+00   2.1311046e+00   2.0983542e+00   2.0655235e+00   2.0326146e+00   1.9996301e+00   1.9665721e+00   1.9334430e+00   1.9002451e+00   1.8669808e+00   1.8336522e+00   1.8002618e+00   1.7668117e+00   1.7333044e+00   1.6997420e+00   1.6661269e+00   1.6324612e+00   1.5987474e+00   1.5649876e+00   1.5311840e+00   1.4973390e+00   1.4634548e+00   1.4295336e+00   1.3955777e+00   1.3615892e+00   1.3275704e+00   1.2935235e+00   1.2594507e+00   1.2253542e+00   1.1912362e+00   1.1570988e+00   1.1229443e+00   1.0887748e+00   1.0545925e+00   1.0203995e+00   9.8619797e-01   9.5199006e-01   9.1777790e-01   8.8356361e-01   8.4934930e-01   8.1513708e-01   7.8092906e-01   7.4672732e-01   7.1253394e-01   6.7835100e-01   6.4418057e-01   6.1002470e-01   5.7588544e-01   5.4176483e-01   5.0766491e-01   4.7358768e-01   4.3953518e-01   4.0550938e-01   3.7151231e-01   3.3754592e-01   3.0361221e-01   2.6971314e-01   2.3585065e-01   2.0202671e-01   1.6824323e-01   1.3450216e-01   1.0080540e-01   6.7154855e-02   3.3552428e-02   4.3250273e-18   1.5464008e-17   9.3770825e-09   1.5045801e-08   2.0704136e-08   2.6352116e-08   3.1989673e-08   3.7616735e-08   4.3233231e-08   4.8839091e-08   5.4434243e-08   6.0018613e-08   6.5592129e-08   7.1154719e-08   7.6706307e-08   8.2246820e-08   8.7776183e-08   9.3294320e-08   9.8801157e-08   1.0429662e-07   1.0978062e-07   1.1525309e-07   1.2071396e-07   1.2616313e-07   1.3160054e-07   1.3702610e-07   1.4243974e-07   1.4784137e-07   1.5323092e-07   1.5860829e-07   1.6397342e-07   1.6932621e-07   1.7466658e-07   1.7999446e-07   1.8530975e-07   1.9061238e-07   1.9590225e-07   2.0117928e-07   2.0644338e-07   2.1169448e-07   2.1693247e-07   2.2215727e-07   2.2736880e-07   2.3256697e-07   2.3775167e-07   2.4292284e-07   2.4808036e-07   2.5322416e-07   2.5835414e-07   2.6347020e-07   2.6857226e-07   2.7366022e-07   2.7873398e-07   2.8379346e-07   2.8883855e-07   2.9386916e-07
3.9776122e+00   3.9558599e+00   3.9338711e+00   3.9116483e+00   3.8891937e+00   3.8665095e+00   3.8435981e+00   3.8204617e+00   3.7971028e+00   3.7735235e+00   3.7497262e+00   3.7257133e+00   3.7014870e+00   3.6770496e+00   3.6524035e+00   3.6275511e+00   3.6024946e+00   3.5772364e+00   3.5517789e+00   3.5261243e+00   3.5002751e+00   3.4742335e+00   3.4480020e+00   3.4215828e+00   3.3949783e+00   3.3681910e+00   3.3412230e+00   3.3140769e+00   3.2867550e+00   3.2592595e+00   3.2315930e+00   3.2037577e+00   3.1757560e+00   3.1475904e+00   3.1192630e+00   3.0907764e+00   3.0621329e+00   3.0333348e+00   3.0043846e+00   2.9752845e+00   2.9460370e+00   2.9166445e+00   2.8871092e+00   2.8574336e+00   2.8276200e+00   2.7976708e+00   2.7675884e+00   2.7373750e+00   2.7070332e+00   2.6765652e+00   2.6459734e+00   2.6152602e+00   2.5844279e+00   2.5534788e+00   2.5224154e+00   2.4912399e+00   2.4599548e+00   2.4285623e+00   2.3970648e+00   2.3654647e+00   2.3337643e+00   2.3019659e+00   2.2700718e+00   2.2380844e+00   2.2060061e+00   2.1738390e+00   2.1415856e+00   2.1092482e+00   2.0768291e+00   2.0443305e+00   2.0117548e+00   1.9791043e+00   1.9463813e+00   1.9135881e+00   1.8807269e+00   1.8478001e+00   1.8148099e+00   1.7817585e+00   1.7486484e+00   1.7154817e+00   1.6822606e+00   1.6489875e+00   1.6156646e+00   1.5822941e+00   1.5488783e+00   1.5154193e+00   1.4819195e+00   1.4483810e+00   1.4148061e+00   1.3811969e+00   1.3475557e+00   1.3138846e+00   1.2801859e+00   1.2464616e+00   1.2127141e+00   1.1789454e+00   1.1451578e+00   1.1113533e+00   1.0775342e+00   1.0437025e+00   1.0098604e+00   9.7601002e-01   9.4215347e-01   9.0829286e-01   8.7443029e-01   8.4056786e-01   8.0670765e-01   7.7285174e-01   7.3900219e-01   7.0516107e-01   6.7133043e-01   6.3751231e-01   6.0370875e-01   5.6992178e-01   5.3615341e-01   5.0240565e-01   4.6868050e-01   4.3497994e-01   4.0130598e-01   3.6766056e-01   3.3404567e-01   3.0046324e-01   2.6691522e-01   2.3340356e-01   1.9993016e-01   1.6649695e-01   1.3310584e-01   9.9758702e-02   6.6457437e-02   3.3203915e-02   4.1606083e-18   1.5464089e-17   9.3668542e-09   1.5027333e-08   2.0677387e-08   2.6317046e-08   3.1946242e-08   3.7564903e-08   4.3172959e-08   4.8770341e-08   5.4356975e-08   5.9932790e-08   6.5497713e-08   7.1051673e-08   7.6594594e-08   8.2126404e-08   8.7647029e-08   9.3156392e-08   9.8654420e-08   1.0414104e-07   1.0961616e-07   1.1507972e-07   1.2053164e-07   1.2597184e-07   1.3140025e-07   1.3681677e-07   1.4222134e-07   1.4761387e-07   1.5299428e-07   1.5836249e-07   1.6371843e-07   1.6906200e-07   1.7439313e-07   1.7971174e-07   1.8501773e-07   1.9031103e-07   1.9559155e-07   2.0085920e-07   2.0611391e-07   2.1135558e-07   2.1658412e-07   2.2179946e-07   2.2700150e-07   2.3219014e-07   2.3736532e-07   2.4252693e-07   2.4767488e-07   2.5280908e-07   2.5792945e-07   2.6303588e-07   2.6812829e-07   2.7320659e-07   2.7827067e-07   2.8332045e-07   2.8835583e-07   2.9337672e-07
3.9373585e+00   3.9158200e+00   3.8940475e+00   3.8720432e+00   3.8498095e+00   3.8273486e+00   3.8046628e+00   3.7817544e+00   3.7586256e+00   3.7352788e+00   3.7117162e+00   3.6879401e+00   3.6639529e+00   3.6397568e+00   3.6153542e+00   3.5907473e+00   3.5659385e+00   3.5409301e+00   3.5157244e+00   3.4903237e+00   3.4647304e+00   3.4389467e+00   3.4129751e+00   3.3868178e+00   3.3604771e+00   3.3339555e+00   3.3072552e+00   3.2803786e+00   3.2533281e+00   3.2261058e+00   3.1987143e+00   3.1711559e+00   3.1434328e+00   3.1155475e+00   3.0875023e+00   3.0592994e+00   3.0309414e+00   3.0024305e+00   2.9737690e+00   2.9449594e+00   2.9160039e+00   2.8869049e+00   2.8576648e+00   2.8282859e+00   2.7987705e+00   2.7691210e+00   2.7393397e+00   2.7094290e+00   2.6793912e+00   2.6492286e+00   2.6189436e+00   2.5885385e+00   2.5580157e+00   2.5273775e+00   2.4966262e+00   2.4657641e+00   2.4347935e+00   2.4037169e+00   2.3725365e+00   2.3412546e+00   2.3098735e+00   2.2783956e+00   2.2468232e+00   2.2151585e+00   2.1834039e+00   2.1515617e+00   2.1196342e+00   2.0876236e+00   2.0555322e+00   2.0233624e+00   1.9911165e+00   1.9587966e+00   1.9264051e+00   1.8939442e+00   1.8614162e+00   1.8288234e+00   1.7961680e+00   1.7634523e+00   1.7306785e+00   1.6978489e+00   1.6649656e+00   1.6320310e+00   1.5990472e+00   1.5660164e+00   1.5329410e+00   1.4998230e+00   1.4666647e+00   1.4334683e+00   1.4002360e+00   1.3669699e+00   1.3336723e+00   1.3003453e+00   1.2669910e+00   1.2336117e+00   1.2002095e+00   1.1667865e+00   1.1333449e+00   1.0998868e+00   1.0664142e+00   1.0329295e+00   9.9943455e-01   9.6593158e-01   9.3242265e-01   8.9890985e-01   8.6539527e-01   8.3188096e-01   7.9836900e-01   7.6486144e-01   7.3136033e-01   6.9786770e-01   6.6438559e-01   6.3091601e-01   5.9746099e-01   5.6402252e-01   5.3060260e-01   4.9720322e-01   4.6382636e-01   4.3047398e-01   3.9714804e-01   3.6385051e-01   3.3058330e-01   2.9734837e-01   2.6414763e-01   2.3098298e-01   1.9785635e-01   1.6476962e-01   1.3172466e-01   9.8723369e-02   6.5767592e-02   3.2859188e-02   3.9487503e-18   1.5464129e-17   9.3567739e-09   1.5009140e-08   2.0651041e-08   2.6282509e-08   3.1903473e-08   3.7513864e-08   4.3113612e-08   4.8702647e-08   5.4280897e-08   5.9848292e-08   6.5404758e-08   7.0950224e-08   7.6484616e-08   8.2007861e-08   8.7519886e-08   9.3020616e-08   9.8509975e-08   1.0398789e-07   1.0945428e-07   1.1490908e-07   1.2035220e-07   1.2578357e-07   1.3120310e-07   1.3661074e-07   1.4200638e-07   1.4738996e-07   1.5276139e-07   1.5812059e-07   1.6346749e-07   1.6880200e-07   1.7412404e-07   1.7943352e-07   1.8473037e-07   1.9001450e-07   1.9528582e-07   2.0054426e-07   2.0578972e-07   2.1102212e-07   2.1624138e-07   2.2144740e-07   2.2664010e-07   2.3181940e-07   2.3698520e-07   2.4213741e-07   2.4727595e-07   2.5240073e-07   2.5751164e-07   2.6260861e-07   2.6769154e-07   2.7276034e-07   2.7781491e-07   2.8285516e-07   2.8788100e-07   2.9289233e-07
3.8975212e+00   3.8761944e+00   3.8546360e+00   3.8328482e+00   3.8108333e+00   3.7885935e+00   3.7661311e+00   3.7434483e+00   3.7205475e+00   3.6974308e+00   3.6741006e+00   3.6505591e+00   3.6268086e+00   3.6028514e+00   3.5786898e+00   3.5543260e+00   3.5297625e+00   3.5050013e+00   3.4800449e+00   3.4548956e+00   3.4295557e+00   3.4040274e+00   3.3783131e+00   3.3524150e+00   3.3263356e+00   3.3000771e+00   3.2736418e+00   3.2470320e+00   3.2202501e+00   3.1932984e+00   3.1661792e+00   3.1388948e+00   3.1114475e+00   3.0838398e+00   3.0560738e+00   3.0281519e+00   3.0000765e+00   2.9718499e+00   2.9434743e+00   2.9149521e+00   2.8862857e+00   2.8574774e+00   2.8285294e+00   2.7994442e+00   2.7702240e+00   2.7408711e+00   2.7113880e+00   2.6817768e+00   2.6520399e+00   2.6221797e+00   2.5921984e+00   2.5620983e+00   2.5318818e+00   2.5015512e+00   2.4711088e+00   2.4405569e+00   2.4098978e+00   2.3791338e+00   2.3482671e+00   2.3173002e+00   2.2862352e+00   2.2550746e+00   2.2238204e+00   2.1924752e+00   2.1610410e+00   2.1295203e+00   2.0979152e+00   2.0662281e+00   2.0344612e+00   2.0026168e+00   1.9706971e+00   1.9387044e+00   1.9066410e+00   1.8745090e+00   1.8423108e+00   1.8100485e+00   1.7777245e+00   1.7453409e+00   1.7128999e+00   1.6804038e+00   1.6478548e+00   1.6152551e+00   1.5826069e+00   1.5499124e+00   1.5171737e+00   1.4843932e+00   1.4515728e+00   1.4187149e+00   1.3858216e+00   1.3528951e+00   1.3199374e+00   1.2869509e+00   1.2539375e+00   1.2208994e+00   1.1878389e+00   1.1547579e+00   1.1216586e+00   1.0885431e+00   1.0554136e+00   1.0222721e+00   9.8912064e-01   9.5596139e-01   9.2279639e-01   8.8962771e-01   8.5645740e-01   8.2328752e-01   7.9012010e-01   7.5695717e-01   7.2380077e-01   6.9065291e-01   6.5751560e-01   6.2439084e-01   5.9128062e-01   5.5818692e-01   5.2511171e-01   4.9205698e-01   4.5902466e-01   4.2601671e-01   3.9303506e-01   3.6008165e-01   3.2715840e-01   2.9426721e-01   2.6140999e-01   2.2858863e-01   1.9580500e-01   1.6306100e-01   1.3035847e-01   9.7699263e-02   6.5085231e-02   3.2518202e-02   3.8778771e-18   1.5464132e-17   9.3468387e-09   1.4991217e-08   2.0625091e-08   2.6248492e-08   3.1861352e-08   3.7463602e-08   4.3055171e-08   4.8635990e-08   5.4205987e-08   5.9765092e-08   6.5313234e-08   7.0850339e-08   7.6376336e-08   8.1891152e-08   8.7394713e-08   9.2886945e-08   9.8367774e-08   1.0383713e-07   1.0929492e-07   1.1474109e-07   1.2017555e-07   1.2559823e-07   1.3100905e-07   1.3640793e-07   1.4179480e-07   1.4716957e-07   1.5253216e-07   1.5788251e-07   1.6322051e-07   1.6854610e-07   1.7385920e-07   1.7915971e-07   1.8444756e-07   1.8972267e-07   1.9498495e-07   2.0023432e-07   2.0547069e-07   2.1069398e-07   2.1590410e-07   2.2110097e-07   2.2628450e-07   2.3145460e-07   2.3661118e-07   2.4175416e-07   2.4688345e-07   2.5199895e-07   2.5710058e-07   2.6218824e-07   2.6726185e-07   2.7232131e-07   2.7736653e-07   2.8239742e-07   2.8741388e-07   2.9241581e-07
3.8580958e+00   3.8369786e+00   3.8156322e+00   3.7940588e+00   3.7722605e+00   3.7502397e+00   3.7279985e+00   3.7055392e+00   3.6828640e+00   3.6599752e+00   3.6368751e+00   3.6135658e+00   3.5900498e+00   3.5663291e+00   3.5424061e+00   3.5182831e+00   3.4939623e+00   3.4694460e+00   3.4447365e+00   3.4198361e+00   3.3947470e+00   3.3694715e+00   3.3440120e+00   3.3183706e+00   3.2925498e+00   3.2665517e+00   3.2403788e+00   3.2140332e+00   3.1875173e+00   3.1608334e+00   3.1339837e+00   3.1069707e+00   3.0797965e+00   3.0524635e+00   3.0249740e+00   2.9973302e+00   2.9695346e+00   2.9415894e+00   2.9134968e+00   2.8852593e+00   2.8568790e+00   2.8283584e+00   2.7996996e+00   2.7709051e+00   2.7419771e+00   2.7129179e+00   2.6837298e+00   2.6544151e+00   2.6249761e+00   2.5954152e+00   2.5657345e+00   2.5359363e+00   2.5060231e+00   2.4759970e+00   2.4458604e+00   2.4156155e+00   2.3852646e+00   2.3548100e+00   2.3242539e+00   2.2935987e+00   2.2628466e+00   2.2319999e+00   2.2010608e+00   2.1700317e+00   2.1389147e+00   2.1077121e+00   2.0764262e+00   2.0450592e+00   2.0136134e+00   1.9820910e+00   1.9504943e+00   1.9188254e+00   1.8870866e+00   1.8552802e+00   1.8234083e+00   1.7914731e+00   1.7594770e+00   1.7274220e+00   1.6953104e+00   1.6631444e+00   1.6309262e+00   1.5986579e+00   1.5663418e+00   1.5339799e+00   1.5015746e+00   1.4691279e+00   1.4366420e+00   1.4041191e+00   1.3715612e+00   1.3389706e+00   1.3063494e+00   1.2736996e+00   1.2410235e+00   1.2083232e+00   1.1756006e+00   1.1428581e+00   1.1100975e+00   1.0773211e+00   1.0445309e+00   1.0117290e+00   9.7891740e-01   9.4609823e-01   9.1327350e-01   8.8044528e-01   8.4761558e-01   8.1478645e-01   7.8195990e-01   7.4913794e-01   7.1632257e-01   6.8351580e-01   6.5071960e-01   6.1793596e-01   5.8516685e-01   5.5241423e-01   5.1968005e-01   4.8696626e-01   4.5427478e-01   4.2160756e-01   3.8896650e-01   3.5635352e-01   3.2377051e-01   2.9121936e-01   2.5870196e-01   2.2622017e-01   1.9377586e-01   1.6137088e-01   1.2900707e-01   9.6686253e-02   6.4410265e-02   3.2180913e-02   3.8071869e-18   1.5464114e-17   9.3370458e-09   1.4973558e-08   2.0599528e-08   2.6214987e-08   3.1819868e-08   3.7414101e-08   4.2997617e-08   4.8570347e-08   5.4132220e-08   5.9683165e-08   6.5223111e-08   7.0751987e-08   7.6269721e-08   8.1776239e-08   8.7271470e-08   9.2755339e-08   9.8227772e-08   1.0368870e-07   1.0913803e-07   1.1457571e-07   1.2000165e-07   1.2541578e-07   1.3081802e-07   1.3620829e-07   1.4158652e-07   1.4695263e-07   1.5230653e-07   1.5764815e-07   1.6297741e-07   1.6829423e-07   1.7359852e-07   1.7889022e-07   1.8416922e-07   1.8943546e-07   1.9468884e-07   1.9992929e-07   2.0515672e-07   2.1037105e-07   2.1557219e-07   2.2076005e-07   2.2593456e-07   2.3109561e-07   2.3624313e-07   2.4137703e-07   2.4649722e-07   2.5160360e-07   2.5669610e-07   2.6177462e-07   2.6683906e-07   2.7188934e-07   2.7692537e-07   2.8194705e-07   2.8695429e-07   2.9194700e-07
3.8190779e+00   3.7981683e+00   3.7770318e+00   3.7556706e+00   3.7340869e+00   3.7122828e+00   3.6902606e+00   3.6680226e+00   3.6455709e+00   3.6229078e+00   3.6000355e+00   3.5769562e+00   3.5536722e+00   3.5301857e+00   3.5064991e+00   3.4826144e+00   3.4585340e+00   3.4342601e+00   3.4097951e+00   3.3851410e+00   3.3603003e+00   3.3352752e+00   3.3100679e+00   3.2846807e+00   3.2591158e+00   3.2333757e+00   3.2074625e+00   3.1813784e+00   3.1551259e+00   3.1287071e+00   3.1021243e+00   3.0753798e+00   3.0484760e+00   3.0214150e+00   2.9941992e+00   2.9668308e+00   2.9393121e+00   2.9116455e+00   2.8838331e+00   2.8558773e+00   2.8277803e+00   2.7995445e+00   2.7711721e+00   2.7426653e+00   2.7140266e+00   2.6852580e+00   2.6563620e+00   2.6273409e+00   2.5981967e+00   2.5689320e+00   2.5395488e+00   2.5100496e+00   2.4804365e+00   2.4507118e+00   2.4208778e+00   2.3909368e+00   2.3608909e+00   2.3307426e+00   2.3004939e+00   2.2701473e+00   2.2397049e+00   2.2091689e+00   2.1785416e+00   2.1478253e+00   2.1170222e+00   2.0861346e+00   2.0551645e+00   2.0241144e+00   1.9929864e+00   1.9617827e+00   1.9305055e+00   1.8991571e+00   1.8677396e+00   1.8362553e+00   1.8047064e+00   1.7730950e+00   1.7414233e+00   1.7096936e+00   1.6779079e+00   1.6460686e+00   1.6141777e+00   1.5822374e+00   1.5502498e+00   1.5182172e+00   1.4861417e+00   1.4540254e+00   1.4218704e+00   1.3896789e+00   1.3574530e+00   1.3251948e+00   1.2929064e+00   1.2605900e+00   1.2282476e+00   1.1958814e+00   1.1634933e+00   1.1310856e+00   1.0986602e+00   1.0662193e+00   1.0337648e+00   1.0012989e+00   9.6882355e-01   9.3634085e-01   9.0385279e-01   8.7136140e-01   8.3886871e-01   8.0637670e-01   7.7388739e-01   7.4140276e-01   7.0892479e-01   6.7645546e-01   6.4399674e-01   6.1155058e-01   5.7911893e-01   5.4670373e-01   5.1430692e-01   4.8193042e-01   4.4957614e-01   4.1724598e-01   3.8494186e-01   3.5266564e-01   3.2041921e-01   2.8820445e-01   2.5602320e-01   2.2387733e-01   1.9176867e-01   1.5969905e-01   1.2767029e-01   9.5684211e-02   6.3742610e-02   3.1847279e-02   3.9613324e-18   1.5464092e-17   9.3273927e-09   1.4956158e-08   2.0574344e-08   2.6181983e-08   3.1779007e-08   3.7365346e-08   4.2940934e-08   4.8505699e-08   5.4059572e-08   5.9602484e-08   6.5134362e-08   7.0655136e-08   7.6164735e-08   8.1663086e-08   8.7150116e-08   9.2625753e-08   9.8089923e-08   1.0354255e-07   1.0898356e-07   1.1441289e-07   1.1983044e-07   1.2523616e-07   1.3062995e-07   1.3601176e-07   1.4138148e-07   1.4673906e-07   1.5208441e-07   1.5741745e-07   1.6273811e-07   1.6804629e-07   1.7334193e-07   1.7862494e-07   1.8389524e-07   1.8915275e-07   1.9439739e-07   1.9962907e-07   2.0484770e-07   2.1005322e-07   2.1524552e-07   2.2042453e-07   2.2559016e-07   2.3074232e-07   2.3588093e-07   2.4100590e-07   2.4611714e-07   2.5121456e-07   2.5629807e-07   2.6136760e-07   2.6642303e-07   2.7146429e-07   2.7649128e-07   2.8150391e-07   2.8650209e-07   2.9148572e-07
3.7804630e+00   3.7597590e+00   3.7388304e+00   3.7176794e+00   3.6963081e+00   3.6747187e+00   3.6529134e+00   3.6308944e+00   3.6086640e+00   3.5862243e+00   3.5635776e+00   3.5407260e+00   3.5176718e+00   3.4944173e+00   3.4709645e+00   3.4473159e+00   3.4234735e+00   3.3994397e+00   3.3752166e+00   3.3508065e+00   3.3262117e+00   3.3014344e+00   3.2764769e+00   3.2513413e+00   3.2260299e+00   3.2005451e+00   3.1748890e+00   3.1490639e+00   3.1230721e+00   3.0969157e+00   3.0705972e+00   3.0441187e+00   3.0174824e+00   2.9906908e+00   2.9637459e+00   2.9366501e+00   2.9094056e+00   2.8820147e+00   2.8544797e+00   2.8268028e+00   2.7989863e+00   2.7710324e+00   2.7429433e+00   2.7147215e+00   2.6863691e+00   2.6578883e+00   2.6292814e+00   2.6005508e+00   2.5716985e+00   2.5427270e+00   2.5136383e+00   2.4844349e+00   2.4551189e+00   2.4256926e+00   2.3961582e+00   2.3665179e+00   2.3367740e+00   2.3069288e+00   2.2769844e+00   2.2469432e+00   2.2168072e+00   2.1865788e+00   2.1562602e+00   2.1258536e+00   2.0953611e+00   2.0647851e+00   2.0341277e+00   2.0033911e+00   1.9725776e+00   1.9416893e+00   1.9107284e+00   1.8796971e+00   1.8485977e+00   1.8174322e+00   1.7862028e+00   1.7549118e+00   1.7235613e+00   1.6921534e+00   1.6606903e+00   1.6291742e+00   1.5976072e+00   1.5659915e+00   1.5343291e+00   1.5026223e+00   1.4708731e+00   1.4390837e+00   1.4072562e+00   1.3753926e+00   1.3434952e+00   1.3115659e+00   1.2796070e+00   1.2476203e+00   1.2156082e+00   1.1835725e+00   1.1515154e+00   1.1194390e+00   1.0873452e+00   1.0552362e+00   1.0231140e+00   9.9098049e-01   9.5883785e-01   9.2668804e-01   8.9453308e-01   8.6237496e-01   8.3021568e-01   7.9805722e-01   7.6590156e-01   7.3375066e-01   7.0160650e-01   6.6947102e-01   6.3734617e-01   6.0523388e-01   5.7313609e-01   5.4105471e-01   5.0899166e-01   4.7694883e-01   4.4492813e-01   4.1293143e-01   3.8096061e-01   3.4901754e-01   3.1710408e-01   2.8522208e-01   2.5337338e-01   2.2155980e-01   1.8978316e-01   1.5804529e-01   1.2634797e-01   9.4693009e-02   6.3082179e-02   3.1517255e-02   4.1437136e-18   1.5464096e-17   9.3178767e-09   1.4939012e-08   2.0549533e-08   2.6149470e-08   3.1738756e-08   3.7317323e-08   4.2885102e-08   4.8442025e-08   5.3988022e-08   5.9523024e-08   6.5046959e-08   7.0559757e-08   7.6061346e-08   8.1551656e-08   8.7030614e-08   9.2498147e-08   9.7954182e-08   1.0339865e-07   1.0883146e-07   1.1425256e-07   1.1966187e-07   1.2505930e-07   1.3044479e-07   1.3581825e-07   1.4117961e-07   1.4652880e-07   1.5186573e-07   1.5719033e-07   1.6250252e-07   1.6780221e-07   1.7308934e-07   1.7836381e-07   1.8362554e-07   1.8887447e-07   1.9411050e-07   1.9933354e-07   2.0454353e-07   2.0974037e-07   2.1492398e-07   2.2009428e-07   2.2525118e-07   2.3039460e-07   2.3552444e-07   2.4064063e-07   2.4574307e-07   2.5083167e-07   2.5590636e-07   2.6096704e-07   2.6601361e-07   2.7104600e-07   2.7606410e-07   2.8106783e-07   2.8605710e-07   2.9103181e-07
3.7422469e+00   3.7217465e+00   3.7010238e+00   3.6800808e+00   3.6589198e+00   3.6375430e+00   3.6159524e+00   3.5941504e+00   3.5721391e+00   3.5499207e+00   3.5274973e+00   3.5048712e+00   3.4820445e+00   3.4590196e+00   3.4357985e+00   3.4123835e+00   3.3887768e+00   3.3649806e+00   3.3409972e+00   3.3168287e+00   3.2924773e+00   3.2679454e+00   3.2432351e+00   3.2183486e+00   3.1932883e+00   3.1680562e+00   3.1426547e+00   3.1170860e+00   3.0913522e+00   3.0654558e+00   3.0393988e+00   3.0131835e+00   2.9868123e+00   2.9602872e+00   2.9336105e+00   2.9067846e+00   2.8798115e+00   2.8526937e+00   2.8254332e+00   2.7980324e+00   2.7704935e+00   2.7428187e+00   2.7150102e+00   2.6870704e+00   2.6590014e+00   2.6308054e+00   2.6024848e+00   2.5740417e+00   2.5454784e+00   2.5167971e+00   2.4880000e+00   2.4590894e+00   2.4300674e+00   2.4009364e+00   2.3716985e+00   2.3423560e+00   2.3129110e+00   2.2833658e+00   2.2537226e+00   2.2239836e+00   2.1941510e+00   2.1642270e+00   2.1342138e+00   2.1041137e+00   2.0739287e+00   2.0436611e+00   2.0133132e+00   1.9828869e+00   1.9523847e+00   1.9218085e+00   1.8911606e+00   1.8604432e+00   1.8296585e+00   1.7988085e+00   1.7678954e+00   1.7369214e+00   1.7058887e+00   1.6747993e+00   1.6436555e+00   1.6124592e+00   1.5812128e+00   1.5499182e+00   1.5185777e+00   1.4871932e+00   1.4557670e+00   1.4243011e+00   1.3927976e+00   1.3612586e+00   1.3296862e+00   1.2980824e+00   1.2664493e+00   1.2347891e+00   1.2031036e+00   1.1713951e+00   1.1396655e+00   1.1079169e+00   1.0761512e+00   1.0443706e+00   1.0125770e+00   9.8077252e-01   9.4895904e-01   9.1713861e-01   8.8531322e-01   8.5348483e-01   8.2165542e-01   7.8982696e-01   7.5800141e-01   7.2618070e-01   6.9436679e-01   6.6256160e-01   6.3076706e-01   5.9898509e-01   5.6721759e-01   5.3546646e-01   5.0373359e-01   4.7202087e-01   4.4033017e-01   4.0866335e-01   3.7702227e-01   3.4540877e-01   3.1382470e-01   2.8227188e-01   2.5075214e-01   2.1926728e-01   1.8781910e-01   1.5640939e-01   1.2503994e-01   9.3712520e-02   6.2428889e-02   3.1190802e-02   4.1457373e-18   1.5464115e-17   9.3084952e-09   1.4922116e-08   2.0525087e-08   2.6117438e-08   3.1699104e-08   3.7270016e-08   4.2830107e-08   4.8379307e-08   5.3917548e-08   5.9444761e-08   6.4960874e-08   7.0465818e-08   7.5959523e-08   8.1441916e-08   8.6912926e-08   9.2372482e-08   9.7820509e-08   1.0325694e-07   1.0868169e-07   1.1409469e-07   1.1949587e-07   1.2488515e-07   1.3026246e-07   1.3562772e-07   1.4098085e-07   1.4632178e-07   1.5165043e-07   1.5696672e-07   1.6227057e-07   1.6756191e-07   1.7284065e-07   1.7810672e-07   1.8336003e-07   1.8860051e-07   1.9382807e-07   1.9904262e-07   2.0424410e-07   2.0943241e-07   2.1460747e-07   2.1976920e-07   2.2491752e-07   2.3005233e-07   2.3517355e-07   2.4028110e-07   2.4537488e-07   2.5045482e-07   2.5552082e-07   2.6057280e-07   2.6561066e-07   2.7063432e-07   2.7564369e-07   2.8063867e-07   2.8561917e-07   2.9058511e-07
3.7044253e+00   3.6841265e+00   3.6636075e+00   3.6428706e+00   3.6219179e+00   3.6007516e+00   3.5793737e+00   3.5577865e+00   3.5359921e+00   3.5139927e+00   3.4917905e+00   3.4693876e+00   3.4467863e+00   3.4239887e+00   3.4009970e+00   3.3778133e+00   3.3544400e+00   3.3308791e+00   3.3071329e+00   3.2832036e+00   3.2590933e+00   3.2348043e+00   3.2103388e+00   3.1856990e+00   3.1608871e+00   3.1359053e+00   3.1107558e+00   3.0854409e+00   3.0599627e+00   3.0343235e+00   3.0085255e+00   2.9825709e+00   2.9564619e+00   2.9302008e+00   2.9037897e+00   2.8772309e+00   2.8505265e+00   2.8236789e+00   2.7966903e+00   2.7695628e+00   2.7422987e+00   2.7149002e+00   2.6873694e+00   2.6597088e+00   2.6319203e+00   2.6040063e+00   2.5759690e+00   2.5478106e+00   2.5195333e+00   2.4911393e+00   2.4626308e+00   2.4340100e+00   2.4052791e+00   2.3764404e+00   2.3474960e+00   2.3184481e+00   2.2892990e+00   2.2600508e+00   2.2307056e+00   2.2012658e+00   2.1717335e+00   2.1421108e+00   2.1123999e+00   2.0826031e+00   2.0527225e+00   2.0227602e+00   1.9927184e+00   1.9625994e+00   1.9324051e+00   1.9021379e+00   1.8717998e+00   1.8413931e+00   1.8109197e+00   1.7803820e+00   1.7497819e+00   1.7191217e+00   1.6884035e+00   1.6576293e+00   1.6268013e+00   1.5959217e+00   1.5649925e+00   1.5340157e+00   1.5029936e+00   1.4719282e+00   1.4408215e+00   1.4096757e+00   1.3784929e+00   1.3472750e+00   1.3160242e+00   1.2847425e+00   1.2534319e+00   1.2220946e+00   1.1907325e+00   1.1593476e+00   1.1279420e+00   1.0965177e+00   1.0650768e+00   1.0336211e+00   1.0021528e+00   9.7067371e-01   9.3918592e-01   9.0769138e-01   8.7619206e-01   8.4468991e-01   8.1318688e-01   7.8168492e-01   7.5018596e-01   7.1869193e-01   6.8720475e-01   6.5572634e-01   6.2425859e-01   5.9280340e-01   5.6136267e-01   5.2993826e-01   4.9853205e-01   4.6714591e-01   4.3578168e-01   4.0444120e-01   3.7312632e-01   3.4183887e-01   3.1058065e-01   2.7935348e-01   2.4815916e-01   2.1699948e-01   1.8587622e-01   1.5479115e-01   1.2374603e-01   9.2742620e-02   6.1782657e-02   3.0867876e-02   4.0220211e-18   1.5464160e-17   9.2992459e-09   1.4905465e-08   2.0500999e-08   2.6085879e-08   3.1660040e-08   3.7223413e-08   4.2775931e-08   4.8317526e-08   5.3848129e-08   5.9367671e-08   6.4876082e-08   7.0373293e-08   7.5859233e-08   8.1333832e-08   8.6797017e-08   9.2248717e-08   9.7688860e-08   1.0311737e-07   1.0853418e-07   1.1393922e-07   1.1933240e-07   1.2471366e-07   1.3008292e-07   1.3544010e-07   1.4078513e-07   1.4611793e-07   1.5143842e-07   1.5674654e-07   1.6204219e-07   1.6732530e-07   1.7259580e-07   1.7785360e-07   1.8309862e-07   1.8833078e-07   1.9355001e-07   1.9875621e-07   2.0394932e-07   2.0912924e-07   2.1429589e-07   2.1944919e-07   2.2458905e-07   2.2971540e-07   2.3482814e-07   2.3992719e-07   2.4501246e-07   2.5008387e-07   2.5514133e-07   2.6018475e-07   2.6521405e-07   2.7022912e-07   2.7522989e-07   2.8021627e-07   2.8518815e-07   2.9014546e-07
3.6669939e+00   3.6468947e+00   3.6265776e+00   3.6060447e+00   3.5852983e+00   3.5643403e+00   3.5431730e+00   3.5217985e+00   3.5002189e+00   3.4784364e+00   3.4564532e+00   3.4342714e+00   3.4118932e+00   3.3893206e+00   3.3665560e+00   3.3436014e+00   3.3204591e+00   3.2971312e+00   3.2736199e+00   3.2499274e+00   3.2260558e+00   3.2020073e+00   3.1777842e+00   3.1533886e+00   3.1288227e+00   3.1040887e+00   3.0791888e+00   3.0541251e+00   3.0288999e+00   3.0035154e+00   2.9779738e+00   2.9522772e+00   2.9264279e+00   2.9004280e+00   2.8742798e+00   2.8479855e+00   2.8215472e+00   2.7949672e+00   2.7682476e+00   2.7413907e+00   2.7143986e+00   2.6872736e+00   2.6600178e+00   2.6326334e+00   2.6051227e+00   2.5774879e+00   2.5497310e+00   2.5218544e+00   2.4938602e+00   2.4657505e+00   2.4375277e+00   2.4091938e+00   2.3807511e+00   2.3522017e+00   2.3235478e+00   2.2947916e+00   2.2659353e+00   2.2369810e+00   2.2079309e+00   2.1787872e+00   2.1495520e+00   2.1202275e+00   2.0908159e+00   2.0613193e+00   2.0317399e+00   2.0020797e+00   1.9723410e+00   1.9425260e+00   1.9126366e+00   1.8826752e+00   1.8526437e+00   1.8225443e+00   1.7923792e+00   1.7621505e+00   1.7318602e+00   1.7015105e+00   1.6711035e+00   1.6406413e+00   1.6101259e+00   1.5795595e+00   1.5489442e+00   1.5182820e+00   1.4875750e+00   1.4568253e+00   1.4260349e+00   1.3952059e+00   1.3643403e+00   1.3334402e+00   1.3025076e+00   1.2715446e+00   1.2405532e+00   1.2095353e+00   1.1784931e+00   1.1474286e+00   1.1163436e+00   1.0852403e+00   1.0541205e+00   1.0229864e+00   9.9183985e-01   9.6068281e-01   9.2951727e-01   8.9834518e-01   8.6716848e-01   8.3598911e-01   8.0480900e-01   7.7363007e-01   7.4245424e-01   7.1128342e-01   6.8011950e-01   6.4896438e-01   6.1781995e-01   5.8668807e-01   5.5557061e-01   5.2446944e-01   4.9338640e-01   4.6232334e-01   4.3128209e-01   4.0026447e-01   3.6927230e-01   3.3830739e-01   3.0737153e-01   2.7646651e-01   2.4559412e-01   2.1475613e-01   1.8395429e-01   1.5319036e-01   1.2246608e-01   9.1783185e-02   6.1143400e-02   3.0548436e-02   3.9208193e-18   1.5464191e-17   9.2901262e-09   1.4889054e-08   2.0477262e-08   2.6054783e-08   3.1621551e-08   3.7177498e-08   4.2722558e-08   4.8256662e-08   5.3779743e-08   5.9291731e-08   6.4792558e-08   7.0282153e-08   7.5760447e-08   8.1227370e-08   8.6682850e-08   9.2126816e-08   9.7559197e-08   1.0297992e-07   1.0838891e-07   1.1378610e-07   1.1917141e-07   1.2454477e-07   1.2990610e-07   1.3525533e-07   1.4059238e-07   1.4591719e-07   1.5122966e-07   1.5652972e-07   1.6181730e-07   1.6709232e-07   1.7235470e-07   1.7760436e-07   1.8284123e-07   1.8806521e-07   1.9327623e-07   1.9847422e-07   2.0365908e-07   2.0883074e-07   2.1398912e-07   2.1913412e-07   2.2426568e-07   2.2938370e-07   2.3448809e-07   2.3957879e-07   2.4465568e-07   2.4971871e-07   2.5476776e-07   2.5980277e-07   2.6482363e-07   2.6983027e-07   2.7482258e-07   2.7980049e-07   2.8476391e-07   2.8971273e-07
3.6299486e+00   3.6100470e+00   3.5899298e+00   3.5695989e+00   3.5490567e+00   3.5283051e+00   3.5073463e+00   3.4861824e+00   3.4648155e+00   3.4432478e+00   3.4214814e+00   3.3995185e+00   3.3773611e+00   3.3550115e+00   3.3324717e+00   3.3097440e+00   3.2868304e+00   3.2637332e+00   3.2404544e+00   3.2169964e+00   3.1933611e+00   3.1695508e+00   3.1455676e+00   3.1214138e+00   3.0970915e+00   3.0726028e+00   3.0479499e+00   3.0231350e+00   2.9981603e+00   2.9730279e+00   2.9477401e+00   2.9222990e+00   2.8967068e+00   2.8709656e+00   2.8450776e+00   2.8190451e+00   2.7928702e+00   2.7665550e+00   2.7401018e+00   2.7135127e+00   2.6867900e+00   2.6599357e+00   2.6329521e+00   2.6058413e+00   2.5786055e+00   2.5512469e+00   2.5237677e+00   2.4961700e+00   2.4684560e+00   2.4406279e+00   2.4126878e+00   2.3846379e+00   2.3564804e+00   2.3282174e+00   2.2998510e+00   2.2713836e+00   2.2428171e+00   2.2141537e+00   2.1853956e+00   2.1565450e+00   2.1276040e+00   2.0985747e+00   2.0694592e+00   2.0402597e+00   2.0109784e+00   1.9816173e+00   1.9521786e+00   1.9226644e+00   1.8930768e+00   1.8634179e+00   1.8336899e+00   1.8038948e+00   1.7740347e+00   1.7441118e+00   1.7141281e+00   1.6840857e+00   1.6539867e+00   1.6238332e+00   1.5936272e+00   1.5633708e+00   1.5330661e+00   1.5027152e+00   1.4723200e+00   1.4418827e+00   1.4114052e+00   1.3808897e+00   1.3503381e+00   1.3197525e+00   1.2891348e+00   1.2584871e+00   1.2278115e+00   1.1971098e+00   1.1663842e+00   1.1356365e+00   1.1048688e+00   1.0740830e+00   1.0432812e+00   1.0124652e+00   9.8163701e-01   9.5079861e-01   9.1995191e-01   8.8909885e-01   8.5824136e-01   8.2738135e-01   7.9652074e-01   7.6566142e-01   7.3480529e-01   7.0395424e-01   6.7311015e-01   6.4227489e-01   6.1145033e-01   5.8063831e-01   5.4984069e-01   5.1905931e-01   4.8829599e-01   4.5755256e-01   4.2683084e-01   3.9613262e-01   3.6545970e-01   3.3481388e-01   3.0419692e-01   2.7361061e-01   2.4305669e-01   2.1253693e-01   1.8205306e-01   1.5160682e-01   1.2119992e-01   9.0834096e-02   6.0511038e-02   3.0232444e-02   3.7545401e-18   1.5464221e-17   9.2811338e-09   1.4872878e-08   2.0453870e-08   2.6024141e-08   3.1583627e-08   3.7132260e-08   4.2669973e-08   4.8196699e-08   5.3712371e-08   5.9216919e-08   6.4710276e-08   7.0192371e-08   7.5663136e-08   8.1122499e-08   8.6570392e-08   9.2006742e-08   9.7431479e-08   1.0284453e-07   1.0824582e-07   1.1363529e-07   1.1901284e-07   1.2437843e-07   1.2973196e-07   1.3507336e-07   1.4040256e-07   1.4571949e-07   1.5102406e-07   1.5631620e-07   1.6159584e-07   1.6686289e-07   1.7211728e-07   1.7735893e-07   1.8258777e-07   1.8780370e-07   1.9300665e-07   1.9819655e-07   2.0337331e-07   2.0853684e-07   2.1368707e-07   2.1882392e-07   2.2394729e-07   2.2905712e-07   2.3415331e-07   2.3923577e-07   2.4430443e-07   2.4935920e-07   2.5439999e-07   2.5942672e-07   2.6443929e-07   2.6943762e-07   2.7442162e-07   2.7939121e-07   2.8434628e-07   2.8928676e-07
3.5932851e+00   3.5735793e+00   3.5536599e+00   3.5335292e+00   3.5131892e+00   3.4926419e+00   3.4718895e+00   3.4509342e+00   3.4297779e+00   3.4084229e+00   3.3868712e+00   3.3651250e+00   3.3431863e+00   3.3210574e+00   3.2987402e+00   3.2762371e+00   3.2535500e+00   3.2306812e+00   3.2076327e+00   3.1844068e+00   3.1610055e+00   3.1374310e+00   3.1136854e+00   3.0897709e+00   3.0656897e+00   3.0414439e+00   3.0170356e+00   2.9924670e+00   2.9677403e+00   2.9428576e+00   2.9178210e+00   2.8926328e+00   2.8672951e+00   2.8418100e+00   2.8161797e+00   2.7904064e+00   2.7644922e+00   2.7384392e+00   2.7122497e+00   2.6859258e+00   2.6594696e+00   2.6328834e+00   2.6061692e+00   2.5793292e+00   2.5523656e+00   2.5252805e+00   2.4980761e+00   2.4707545e+00   2.4433179e+00   2.4157684e+00   2.3881082e+00   2.3603394e+00   2.3324642e+00   2.3044847e+00   2.2764030e+00   2.2482213e+00   2.2199416e+00   2.1915663e+00   2.1630972e+00   2.1345367e+00   2.1058868e+00   2.0771496e+00   2.0483273e+00   2.0194219e+00   1.9904357e+00   1.9613705e+00   1.9322287e+00   1.9030123e+00   1.8737233e+00   1.8443639e+00   1.8149362e+00   1.7854422e+00   1.7558840e+00   1.7262637e+00   1.6965834e+00   1.6668452e+00   1.6370510e+00   1.6072030e+00   1.5773032e+00   1.5473536e+00   1.5173563e+00   1.4873134e+00   1.4572268e+00   1.4270986e+00   1.3969309e+00   1.3667255e+00   1.3364846e+00   1.3062101e+00   1.2759041e+00   1.2455685e+00   1.2152053e+00   1.1848165e+00   1.1544041e+00   1.1239700e+00   1.0935162e+00   1.0630447e+00   1.0325574e+00   1.0020562e+00   9.7154302e-01   9.4101988e-01   9.1048866e-01   8.7995127e-01   8.4940961e-01   8.1886558e-01   7.8832108e-01   7.5777798e-01   7.2723817e-01   6.9670350e-01   6.6617584e-01   6.3565704e-01   6.0514895e-01   5.7465339e-01   5.4417220e-01   5.1370719e-01   4.8326019e-01   4.5283298e-01   4.2242737e-01   3.9204514e-01   3.6168806e-01   3.3135791e-01   3.0105644e-01   2.7078541e-01   2.4054656e-01   2.1034161e-01   1.8017229e-01   1.5004032e-01   1.1994740e-01   8.9895231e-02   5.9885490e-02   2.9919858e-02   3.6461930e-18   1.5464232e-17   9.2722665e-09   1.4856934e-08   2.0430815e-08   2.5993945e-08   3.1546256e-08   3.7087684e-08   4.2618161e-08   4.8137619e-08   5.3645993e-08   5.9143213e-08   6.4629212e-08   7.0103920e-08   7.5567269e-08   8.1019188e-08   8.6459609e-08   9.1888459e-08   9.7305668e-08   1.0271116e-07   1.0810488e-07   1.1348673e-07   1.1885666e-07   1.2421458e-07   1.2956043e-07   1.3489413e-07   1.4021560e-07   1.4552477e-07   1.5082157e-07   1.5610591e-07   1.6137773e-07   1.6663694e-07   1.7188347e-07   1.7711724e-07   1.8233816e-07   1.8754617e-07   1.9274119e-07   1.9792312e-07   2.0309190e-07   2.0824743e-07   2.1338965e-07   2.1851846e-07   2.2363379e-07   2.2873556e-07   2.3382367e-07   2.3889804e-07   2.4395859e-07   2.4900524e-07   2.5403790e-07   2.5905648e-07   2.6406089e-07   2.6905106e-07   2.7402688e-07   2.7898827e-07   2.8393515e-07   2.8886742e-07
3.5569995e+00   3.5374875e+00   3.5177641e+00   3.4978315e+00   3.4776916e+00   3.4573467e+00   3.4367988e+00   3.4160499e+00   3.3951022e+00   3.3739578e+00   3.3526187e+00   3.3310870e+00   3.3093649e+00   3.2874545e+00   3.2653578e+00   3.2430770e+00   3.2206142e+00   3.1979715e+00   3.1751510e+00   3.1521549e+00   3.1289852e+00   3.1056442e+00   3.0821339e+00   3.0584564e+00   3.0346139e+00   3.0106085e+00   2.9864424e+00   2.9621177e+00   2.9376365e+00   2.9130009e+00   2.8882131e+00   2.8632753e+00   2.8381895e+00   2.8129580e+00   2.7875827e+00   2.7620660e+00   2.7364099e+00   2.7106165e+00   2.6846881e+00   2.6586266e+00   2.6324344e+00   2.6061135e+00   2.5796660e+00   2.5530941e+00   2.5263999e+00   2.4995855e+00   2.4726531e+00   2.4456049e+00   2.4184429e+00   2.3911692e+00   2.3637861e+00   2.3362955e+00   2.3086997e+00   2.2810008e+00   2.2532009e+00   2.2253020e+00   2.1973063e+00   2.1692160e+00   2.1410331e+00   2.1127597e+00   2.0843979e+00   2.0559499e+00   2.0274177e+00   1.9988034e+00   1.9701092e+00   1.9413370e+00   1.9124890e+00   1.8835673e+00   1.8545739e+00   1.8255109e+00   1.7963803e+00   1.7671844e+00   1.7379250e+00   1.7086042e+00   1.6792242e+00   1.6497869e+00   1.6202944e+00   1.5907487e+00   1.5611519e+00   1.5315059e+00   1.5018129e+00   1.4720748e+00   1.4422936e+00   1.4124713e+00   1.3826100e+00   1.3527116e+00   1.3227782e+00   1.2928116e+00   1.2628140e+00   1.2327871e+00   1.2027332e+00   1.1726540e+00   1.1425515e+00   1.1124277e+00   1.0822845e+00   1.0521239e+00   1.0219478e+00   9.9175803e-01   9.6155662e-01   9.3134542e-01   9.0112635e-01   8.7090129e-01   8.4067213e-01   8.1044075e-01   7.8020902e-01   7.4997879e-01   7.1975194e-01   6.8953030e-01   6.5931571e-01   6.2911001e-01   5.9891502e-01   5.6873255e-01   5.3856442e-01   5.0841243e-01   4.7827836e-01   4.4816401e-01   4.1807114e-01   3.8800152e-01   3.5795690e-01   3.2793905e-01   2.9794970e-01   2.6799057e-01   2.3806340e-01   2.0816989e-01   1.7831175e-01   1.4849068e-01   1.1870836e-01   8.8966474e-02   5.9266679e-02   2.9610638e-02   3.5861757e-18   1.5464226e-17   9.2635219e-09   1.4841216e-08   2.0408093e-08   2.5964186e-08   3.1509430e-08   3.7043758e-08   4.2567106e-08   4.8079406e-08   5.3580590e-08   5.9070592e-08   6.4549343e-08   7.0016775e-08   7.5472820e-08   8.0917407e-08   8.6350468e-08   9.1771931e-08   9.7181727e-08   1.0257978e-07   1.0796603e-07   1.1334040e-07   1.1870281e-07   1.2405319e-07   1.2939148e-07   1.3471759e-07   1.4003145e-07   1.4533299e-07   1.5062213e-07   1.5589879e-07   1.6116291e-07   1.6641440e-07   1.7165319e-07   1.7687919e-07   1.8209234e-07   1.8729255e-07   1.9247974e-07   1.9765384e-07   2.0281476e-07   2.0796243e-07   2.1309676e-07   2.1821767e-07   2.2332508e-07   2.2841891e-07   2.3349907e-07   2.3856548e-07   2.4361806e-07   2.4865671e-07   2.5368137e-07   2.5869193e-07   2.6368832e-07   2.6867045e-07   2.7363822e-07   2.7859156e-07   2.8353037e-07   2.8845456e-07
3.5210877e+00   3.5017675e+00   3.4822382e+00   3.4625017e+00   3.4425602e+00   3.4224156e+00   3.4020701e+00   3.3815257e+00   3.3607845e+00   3.3398486e+00   3.3187200e+00   3.2974008e+00   3.2758931e+00   3.2541990e+00   3.2323206e+00   3.2102600e+00   3.1880192e+00   3.1656004e+00   3.1430057e+00   3.1202371e+00   3.0972968e+00   3.0741869e+00   3.0509095e+00   3.0274666e+00   3.0038605e+00   2.9800932e+00   2.9561668e+00   2.9320835e+00   2.9078454e+00   2.8834545e+00   2.8589130e+00   2.8342231e+00   2.8093867e+00   2.7844062e+00   2.7592835e+00   2.7340207e+00   2.7086201e+00   2.6830838e+00   2.6574137e+00   2.6316122e+00   2.6056812e+00   2.5796229e+00   2.5534394e+00   2.5271329e+00   2.5007054e+00   2.4741590e+00   2.4474960e+00   2.4207183e+00   2.3938281e+00   2.3668274e+00   2.3397185e+00   2.3125034e+00   2.2851842e+00   2.2577630e+00   2.2302420e+00   2.2026231e+00   2.1749085e+00   2.1471003e+00   2.1192005e+00   2.0912113e+00   2.0631348e+00   2.0349730e+00   2.0067279e+00   1.9784018e+00   1.9499965e+00   1.9215143e+00   1.8929571e+00   1.8643271e+00   1.8356262e+00   1.8068565e+00   1.7780202e+00   1.7491191e+00   1.7201554e+00   1.6911311e+00   1.6620482e+00   1.6329088e+00   1.6037148e+00   1.5744684e+00   1.5451714e+00   1.5158259e+00   1.4864339e+00   1.4569974e+00   1.4275185e+00   1.3979990e+00   1.3684409e+00   1.3388463e+00   1.3092171e+00   1.2795553e+00   1.2498627e+00   1.2201415e+00   1.1903935e+00   1.1606206e+00   1.1308248e+00   1.1010081e+00   1.0711723e+00   1.0413193e+00   1.0114511e+00   9.8156957e-01   9.5167659e-01   9.2177406e-01   8.9186384e-01   8.6194782e-01   8.3202786e-01   8.0210582e-01   7.7218354e-01   7.4226288e-01   7.1234567e-01   6.8243374e-01   6.5252890e-01   6.2263298e-01   5.9274777e-01   5.6287507e-01   5.3301667e-01   5.0317436e-01   4.7334990e-01   4.4354506e-01   4.1376159e-01   3.8400125e-01   3.5426576e-01   3.2455687e-01   2.9487629e-01   2.6522573e-01   2.3560691e-01   2.0602150e-01   1.7647121e-01   1.4695770e-01   1.1748265e-01   8.8047706e-02   5.8654526e-02   2.9304747e-02   3.5810695e-18   1.5464217e-17   9.2548979e-09   1.4825721e-08   2.0385696e-08   2.5934856e-08   3.1473136e-08   3.7000471e-08   4.2516795e-08   4.8022041e-08   5.3516144e-08   5.8999034e-08   6.4470646e-08   6.9930911e-08   7.5379761e-08   8.0817126e-08   8.6242938e-08   9.1657126e-08   9.7059621e-08   1.0245035e-07   1.0782925e-07   1.1319624e-07   1.1855125e-07   1.2389420e-07   1.2922504e-07   1.3454368e-07   1.3985004e-07   1.4514407e-07   1.5042567e-07   1.5569477e-07   1.6095131e-07   1.6619520e-07   1.7142637e-07   1.7664473e-07   1.8185022e-07   1.8704275e-07   1.9222225e-07   1.9738863e-07   2.0254183e-07   2.0768175e-07   2.1280831e-07   2.1792144e-07   2.2302106e-07   2.2810708e-07   2.3317941e-07   2.3823799e-07   2.4328271e-07   2.4831351e-07   2.5333029e-07   2.5833297e-07   2.6332146e-07   2.6829567e-07   2.7325553e-07   2.7820094e-07   2.8313181e-07   2.8804806e-07
3.4855456e+00   3.4664155e+00   3.4470783e+00   3.4275361e+00   3.4077909e+00   3.3878447e+00   3.3676996e+00   3.3473577e+00   3.3268209e+00   3.3060915e+00   3.2851713e+00   3.2640625e+00   3.2427671e+00   3.2212872e+00   3.1996249e+00   3.1777823e+00   3.1557614e+00   3.1335642e+00   3.1111930e+00   3.0886498e+00   3.0659365e+00   3.0430555e+00   3.0200087e+00   2.9967981e+00   2.9734260e+00   2.9498944e+00   2.9262054e+00   2.9023611e+00   2.8783636e+00   2.8542150e+00   2.8299174e+00   2.8054728e+00   2.7808834e+00   2.7561513e+00   2.7312786e+00   2.7062674e+00   2.6811197e+00   2.6558378e+00   2.6304236e+00   2.6048792e+00   2.5792069e+00   2.5534086e+00   2.5274865e+00   2.5014426e+00   2.4752791e+00   2.4489981e+00   2.4226016e+00   2.3960917e+00   2.3694706e+00   2.3427402e+00   2.3159028e+00   2.2889603e+00   2.2619149e+00   2.2347687e+00   2.2075236e+00   2.1801819e+00   2.1527455e+00   2.1252165e+00   2.0975971e+00   2.0698892e+00   2.0420949e+00   2.0142164e+00   1.9862556e+00   1.9582145e+00   1.9300954e+00   1.9019001e+00   1.8736307e+00   1.8452894e+00   1.8168780e+00   1.7883987e+00   1.7598535e+00   1.7312443e+00   1.7025733e+00   1.6738423e+00   1.6450535e+00   1.6162089e+00   1.5873104e+00   1.5583600e+00   1.5293598e+00   1.5003116e+00   1.4712176e+00   1.4420797e+00   1.4128997e+00   1.3836798e+00   1.3544219e+00   1.3251279e+00   1.2957998e+00   1.2664394e+00   1.2370489e+00   1.2076300e+00   1.1781847e+00   1.1487150e+00   1.1192227e+00   1.0897098e+00   1.0601781e+00   1.0306296e+00   1.0010661e+00   9.7148953e-01   9.4190174e-01   9.1230461e-01   8.8270000e-01   8.5308975e-01   8.2347573e-01   7.9385976e-01   7.6424368e-01   7.3462931e-01   7.0501847e-01   6.7541296e-01   6.4581459e-01   6.1622516e-01   5.8664644e-01   5.5708022e-01   5.2752826e-01   4.9799233e-01   4.6847419e-01   4.3897556e-01   4.0949820e-01   3.8004384e-01   3.5061418e-01   3.2121095e-01   2.9183584e-01   2.6249055e-01   2.3317677e-01   2.0389617e-01   1.7465042e-01   1.4544118e-01   1.1627010e-01   8.7138812e-02   5.8048954e-02   2.9002146e-02   3.6219864e-18   1.5464203e-17   9.2463924e-09   1.4810445e-08   2.0363618e-08   2.5905947e-08   3.1437366e-08   3.6957810e-08   4.2467213e-08   4.7965511e-08   5.3452635e-08   5.8928521e-08   6.4393099e-08   6.9846303e-08   7.5288065e-08   8.0718316e-08   8.6136987e-08   9.1544009e-08   9.6939312e-08   1.0232283e-07   1.0769448e-07   1.1305420e-07   1.1840192e-07   1.2373757e-07   1.2906107e-07   1.3437235e-07   1.3967134e-07   1.4495796e-07   1.5023214e-07   1.5549380e-07   1.6074287e-07   1.6597928e-07   1.7120294e-07   1.7641378e-07   1.8161173e-07   1.8679670e-07   1.9196863e-07   1.9712742e-07   2.0227300e-07   2.0740529e-07   2.1252421e-07   2.1762969e-07   2.2272163e-07   2.2779996e-07   2.3286460e-07   2.3791546e-07   2.4295246e-07   2.4797552e-07   2.5298455e-07   2.5797946e-07   2.6296018e-07   2.6792662e-07   2.7287868e-07   2.7781629e-07   2.8273935e-07   2.8764778e-07
3.4503693e+00   3.4314274e+00   3.4122805e+00   3.3929306e+00   3.3733798e+00   3.3536301e+00   3.3336835e+00   3.3135420e+00   3.2932077e+00   3.2726827e+00   3.2519688e+00   3.2310683e+00   3.2099832e+00   3.1887154e+00   3.1672671e+00   3.1456403e+00   3.1238371e+00   3.1018594e+00   3.0797095e+00   3.0573893e+00   3.0349010e+00   3.0122465e+00   2.9894279e+00   2.9664474e+00   2.9433070e+00   2.9200088e+00   2.8965548e+00   2.8729471e+00   2.8491878e+00   2.8252791e+00   2.8012228e+00   2.7770212e+00   2.7526763e+00   2.7281902e+00   2.7035650e+00   2.6788027e+00   2.6539055e+00   2.6288754e+00   2.6037144e+00   2.5784248e+00   2.5530085e+00   2.5274676e+00   2.5018042e+00   2.4760204e+00   2.4501182e+00   2.4240998e+00   2.3979672e+00   2.3717224e+00   2.3453676e+00   2.3189048e+00   2.2923361e+00   2.2656635e+00   2.2388891e+00   2.2120150e+00   2.1850432e+00   2.1579757e+00   2.1308147e+00   2.1035622e+00   2.0762201e+00   2.0487907e+00   2.0212758e+00   1.9936777e+00   1.9659982e+00   1.9382394e+00   1.9104034e+00   1.8824921e+00   1.8545076e+00   1.8264520e+00   1.7983272e+00   1.7701352e+00   1.7418781e+00   1.7135578e+00   1.6851764e+00   1.6567358e+00   1.6282381e+00   1.5996852e+00   1.5710791e+00   1.5424218e+00   1.5137152e+00   1.4849613e+00   1.4561622e+00   1.4273196e+00   1.3984357e+00   1.3695122e+00   1.3405513e+00   1.3115547e+00   1.2825246e+00   1.2534626e+00   1.2243709e+00   1.1952512e+00   1.1661055e+00   1.1369358e+00   1.1077438e+00   1.0785315e+00   1.0493008e+00   1.0200535e+00   9.9079149e-01   9.6151667e-01   9.3223086e-01   9.0293593e-01   8.7363370e-01   8.4432601e-01   8.1501470e-01   7.8570157e-01   7.5638845e-01   7.2707713e-01   6.9776941e-01   6.6846709e-01   6.3917195e-01   6.0988576e-01   5.8061028e-01   5.5134728e-01   5.2209851e-01   4.9286571e-01   4.6365062e-01   4.3445495e-01   4.0528044e-01   3.7612879e-01   3.4700170e-01   3.1790087e-01   2.8882797e-01   2.5978470e-01   2.3077270e-01   2.0179364e-01   1.7284918e-01   1.4394094e-01   1.1507057e-01   8.6239680e-02   5.7449887e-02   2.8702796e-02   3.6542479e-18   1.5464197e-17   9.2380033e-09   1.4795383e-08   2.0341855e-08   2.5877451e-08   3.1402109e-08   3.6915762e-08   4.2418347e-08   4.7909798e-08   5.3390048e-08   5.8859031e-08   6.4316680e-08   6.9762928e-08   7.5197707e-08   8.0620950e-08   8.6032587e-08   9.1432549e-08   9.6820768e-08   1.0219717e-07   1.0756170e-07   1.1291426e-07   1.1825480e-07   1.2358325e-07   1.2889952e-07   1.3420356e-07   1.3949528e-07   1.4477461e-07   1.5004148e-07   1.5529581e-07   1.6053753e-07   1.6576657e-07   1.7098284e-07   1.7618628e-07   1.8137680e-07   1.8655433e-07   1.9171879e-07   1.9687011e-07   2.0200820e-07   2.0713298e-07   2.1224438e-07   2.1734232e-07   2.2242671e-07   2.2749748e-07   2.3255453e-07   2.3759780e-07   2.4262720e-07   2.4764264e-07   2.5264404e-07   2.5763132e-07   2.6260439e-07   2.6756316e-07   2.7250756e-07   2.7743749e-07   2.8235287e-07   2.8725361e-07
3.4155550e+00   3.3967994e+00   3.3778409e+00   3.3586815e+00   3.3393231e+00   3.3197679e+00   3.3000179e+00   3.2800749e+00   3.2599411e+00   3.2396184e+00   3.2191090e+00   3.1984147e+00   3.1775377e+00   3.1564800e+00   3.1352435e+00   3.1138304e+00   3.0922427e+00   3.0704824e+00   3.0485516e+00   3.0264523e+00   3.0041865e+00   2.9817564e+00   2.9591639e+00   2.9364111e+00   2.9135001e+00   2.8904329e+00   2.8672115e+00   2.8438381e+00   2.8203147e+00   2.7966434e+00   2.7728261e+00   2.7488651e+00   2.7247622e+00   2.7005197e+00   2.6761394e+00   2.6516236e+00   2.6269743e+00   2.6021935e+00   2.5772833e+00   2.5522457e+00   2.5270829e+00   2.5017968e+00   2.4763896e+00   2.4508632e+00   2.4252197e+00   2.3994613e+00   2.3735899e+00   2.3476076e+00   2.3215164e+00   2.2953184e+00   2.2690157e+00   2.2426102e+00   2.2161041e+00   2.1894993e+00   2.1627980e+00   2.1360021e+00   2.1091136e+00   2.0821347e+00   2.0550673e+00   2.0279134e+00   2.0006751e+00   1.9733544e+00   1.9459534e+00   1.9184740e+00   1.8909182e+00   1.8632880e+00   1.8355855e+00   1.8078127e+00   1.7799715e+00   1.7520639e+00   1.7240919e+00   1.6960576e+00   1.6679628e+00   1.6398096e+00   1.6115999e+00   1.5833357e+00   1.5550190e+00   1.5266517e+00   1.4982357e+00   1.4697731e+00   1.4412657e+00   1.4127155e+00   1.3841245e+00   1.3554944e+00   1.3268274e+00   1.2981252e+00   1.2693899e+00   1.2406232e+00   1.2118271e+00   1.1830036e+00   1.1541544e+00   1.1252814e+00   1.0963866e+00   1.0674718e+00   1.0385389e+00   1.0095897e+00   9.8062603e-01   9.5164979e-01   9.2266279e-01   8.9366687e-01   8.6466384e-01   8.3565553e-01   8.0664373e-01   7.7763025e-01   7.4861689e-01   7.1960542e-01   6.9059763e-01   6.6159529e-01   6.3260016e-01   6.0361399e-01   5.7463855e-01   5.4567556e-01   5.1672675e-01   4.8779386e-01   4.5887860e-01   4.2998268e-01   4.0110779e-01   3.7225563e-01   3.4342788e-01   3.1462622e-01   2.8585232e-01   2.5710782e-01   2.2839438e-01   1.9971365e-01   1.7106724e-01   1.4245679e-01   1.1388391e-01   8.5350196e-02   5.6857251e-02   2.8406661e-02   3.6802992e-18   1.5464197e-17   9.2297286e-09   1.4780533e-08   2.0320399e-08   2.5849361e-08   3.1367356e-08   3.6874318e-08   4.2370184e-08   4.7854888e-08   5.3328363e-08   5.8790545e-08   6.4241367e-08   6.9680761e-08   7.5108661e-08   8.0524999e-08   8.5929706e-08   9.1322714e-08   9.6703955e-08   1.0207336e-07   1.0743085e-07   1.1277637e-07   1.1810984e-07   1.2343119e-07   1.2874035e-07   1.3403725e-07   1.3932181e-07   1.4459396e-07   1.4985363e-07   1.5510074e-07   1.6033523e-07   1.6555701e-07   1.7076601e-07   1.7596215e-07   1.8114536e-07   1.8631556e-07   1.9147268e-07   1.9661664e-07   2.0174735e-07   2.0686474e-07   2.1196873e-07   2.1705925e-07   2.2213621e-07   2.2719952e-07   2.3224912e-07   2.3728491e-07   2.4230682e-07   2.4731477e-07   2.5230866e-07   2.5728842e-07   2.6225396e-07   2.6720520e-07   2.7214205e-07   2.7706442e-07   2.8197224e-07   2.8686540e-07
3.3810987e+00   3.3625276e+00   3.3437556e+00   3.3247848e+00   3.3056171e+00   3.2862545e+00   3.2666990e+00   3.2469526e+00   3.2270173e+00   3.2068951e+00   3.1865880e+00   3.1660979e+00   3.1454270e+00   3.1245772e+00   3.1035506e+00   3.0823491e+00   3.0609747e+00   3.0394296e+00   3.0177157e+00   2.9958351e+00   2.9737897e+00   2.9515817e+00   2.9292130e+00   2.9066857e+00   2.8840018e+00   2.8611633e+00   2.8381724e+00   2.8150309e+00   2.7917410e+00   2.7683047e+00   2.7447241e+00   2.7210012e+00   2.6971379e+00   2.6731365e+00   2.6489988e+00   2.6247270e+00   2.6003231e+00   2.5757891e+00   2.5511271e+00   2.5263392e+00   2.5014272e+00   2.4763934e+00   2.4512397e+00   2.4259681e+00   2.4005808e+00   2.3750797e+00   2.3494669e+00   2.3237443e+00   2.2979141e+00   2.2719783e+00   2.2459389e+00   2.2197979e+00   2.1935573e+00   2.1672191e+00   2.1407855e+00   2.1142583e+00   2.0876397e+00   2.0609315e+00   2.0341359e+00   2.0072549e+00   1.9802903e+00   1.9532443e+00   1.9261189e+00   1.8989159e+00   1.8716375e+00   1.8442856e+00   1.8168622e+00   1.7893692e+00   1.7618087e+00   1.7341826e+00   1.7064929e+00   1.6787415e+00   1.6509304e+00   1.6230616e+00   1.5951370e+00   1.5671586e+00   1.5391282e+00   1.5110479e+00   1.4829196e+00   1.4547451e+00   1.4265265e+00   1.3982657e+00   1.3699644e+00   1.3416248e+00   1.3132486e+00   1.2848377e+00   1.2563941e+00   1.2279197e+00   1.1994162e+00   1.1708856e+00   1.1423298e+00   1.1137506e+00   1.0851499e+00   1.0565294e+00   1.0278912e+00   9.9923691e-01   9.7056847e-01   9.4188768e-01   9.1319636e-01   8.8449631e-01   8.5578934e-01   8.2707724e-01   7.9836181e-01   7.6964482e-01   7.4092805e-01   7.1221327e-01   6.8350224e-01   6.5479670e-01   6.2609841e-01   5.9740910e-01   5.6873050e-01   5.4006434e-01   5.1141232e-01   4.8277616e-01   4.5415754e-01   4.2555817e-01   3.9697972e-01   3.6842387e-01   3.3989228e-01   3.1138660e-01   2.8290850e-01   2.5445959e-01   2.2604153e-01   1.9765593e-01   1.6930440e-01   1.4098854e-01   1.1270997e-01   8.4470250e-02   5.6270972e-02   2.8113702e-02   3.6619868e-18   1.5464202e-17   9.2215662e-09   1.4765889e-08   2.0299245e-08   2.5821669e-08   3.1333097e-08   3.6833466e-08   4.2322710e-08   4.7800765e-08   5.3267566e-08   5.8723046e-08   6.4167140e-08   6.9599782e-08   7.5020903e-08   8.0430438e-08   8.5828317e-08   9.1214474e-08   9.6588839e-08   1.0195134e-07   1.0730192e-07   1.1264049e-07   1.1796699e-07   1.2328136e-07   1.2858351e-07   1.3387337e-07   1.3915088e-07   1.4441596e-07   1.4966854e-07   1.5490855e-07   1.6013590e-07   1.6535054e-07   1.7055237e-07   1.7574133e-07   1.8091734e-07   1.8608033e-07   1.9123022e-07   1.9636692e-07   2.0149037e-07   2.0660049e-07   2.1169719e-07   2.1678040e-07   2.2185003e-07   2.2690602e-07   2.3194827e-07   2.3697670e-07   2.4199124e-07   2.4699181e-07   2.5197831e-07   2.5695067e-07   2.6190880e-07   2.6685262e-07   2.7178204e-07   2.7669698e-07   2.8159735e-07   2.8648306e-07
3.3469967e+00   3.3286082e+00   3.3100210e+00   3.2912369e+00   3.2722580e+00   3.2530861e+00   3.2337233e+00   3.2141715e+00   3.1944328e+00   3.1745090e+00   3.1544022e+00   3.1341144e+00   3.1136475e+00   3.0930036e+00   3.0721847e+00   3.0511927e+00   3.0300297e+00   3.0086976e+00   2.9871985e+00   2.9655344e+00   2.9437073e+00   2.9217191e+00   2.8995720e+00   2.8772679e+00   2.8548089e+00   2.8321969e+00   2.8094340e+00   2.7865221e+00   2.7634635e+00   2.7402599e+00   2.7169135e+00   2.6934263e+00   2.6698003e+00   2.6460376e+00   2.6221400e+00   2.5981098e+00   2.5739489e+00   2.5496592e+00   2.5252430e+00   2.5007020e+00   2.4760385e+00   2.4512544e+00   2.4263517e+00   2.4013324e+00   2.3761986e+00   2.3509522e+00   2.3255953e+00   2.3001300e+00   2.2745581e+00   2.2488818e+00   2.2231030e+00   2.1972237e+00   2.1712460e+00   2.1451718e+00   2.1190031e+00   2.0927420e+00   2.0663904e+00   2.0399503e+00   2.0134238e+00   1.9868127e+00   1.9601191e+00   1.9333450e+00   1.9064923e+00   1.8795630e+00   1.8525591e+00   1.8254826e+00   1.7983354e+00   1.7711194e+00   1.7438367e+00   1.7164892e+00   1.6890788e+00   1.6616075e+00   1.6340772e+00   1.6064898e+00   1.5788474e+00   1.5511517e+00   1.5234048e+00   1.4956086e+00   1.4677649e+00   1.4398757e+00   1.4119429e+00   1.3839683e+00   1.3559539e+00   1.3279016e+00   1.2998132e+00   1.2716907e+00   1.2435358e+00   1.2153505e+00   1.1871366e+00   1.1588959e+00   1.1306304e+00   1.1023419e+00   1.0740321e+00   1.0457030e+00   1.0173563e+00   9.8899394e-01   9.6061761e-01   9.3222917e-01   9.0383042e-01   8.7542313e-01   8.4700910e-01   8.1859011e-01   7.9016792e-01   7.6174430e-01   7.3332100e-01   7.0489978e-01   6.7648237e-01   6.4807050e-01   6.1966592e-01   5.9127032e-01   5.6288543e-01   5.3451295e-01   5.0615457e-01   4.7781198e-01   4.4948687e-01   4.2118090e-01   3.9289574e-01   3.6463304e-01   3.3639445e-01   3.0818161e-01   2.7999615e-01   2.5183969e-01   2.2371385e-01   1.9562023e-01   1.6756042e-01   1.3953602e-01   1.1154860e-01   8.3599732e-02   5.5690976e-02   2.7823885e-02   3.5863975e-18   1.5464218e-17   9.2135142e-09   1.4751449e-08   2.0278388e-08   2.5794368e-08   3.1299325e-08   3.6793194e-08   4.2275913e-08   4.7747416e-08   5.3207638e-08   5.8656515e-08   6.4093979e-08   6.9519966e-08   7.4934409e-08   8.0337240e-08   8.5728392e-08   9.1107798e-08   9.6475389e-08   1.0183110e-07   1.0717485e-07   1.1250658e-07   1.1782622e-07   1.2313370e-07   1.2842895e-07   1.3371189e-07   1.3898245e-07   1.4424057e-07   1.4948617e-07   1.5471917e-07   1.5993950e-07   1.6514710e-07   1.7034187e-07   1.7552376e-07   1.8069268e-07   1.8584856e-07   1.9099133e-07   1.9612090e-07   2.0123719e-07   2.0634014e-07   2.1142966e-07   2.1650567e-07   2.2156810e-07   2.2661687e-07   2.3165189e-07   2.3667308e-07   2.4168036e-07   2.4667366e-07   2.5165289e-07   2.5661796e-07   2.6156880e-07   2.6650531e-07   2.7142742e-07   2.7633504e-07   2.8122808e-07   2.8610646e-07
3.3132451e+00   3.2950376e+00   3.2766333e+00   3.2580341e+00   3.2392420e+00   3.2202590e+00   3.2010870e+00   3.1817279e+00   3.1621838e+00   3.1424565e+00   3.1225481e+00   3.1024605e+00   3.0821957e+00   3.0617557e+00   3.0411424e+00   3.0203578e+00   2.9994040e+00   2.9782829e+00   2.9569965e+00   2.9355467e+00   2.9139356e+00   2.8921652e+00   2.8702375e+00   2.8481544e+00   2.8259180e+00   2.8035302e+00   2.7809931e+00   2.7583086e+00   2.7354788e+00   2.7125057e+00   2.6893912e+00   2.6661374e+00   2.6427463e+00   2.6192198e+00   2.5955600e+00   2.5717690e+00   2.5478485e+00   2.5238008e+00   2.4996278e+00   2.4753315e+00   2.4509138e+00   2.4263769e+00   2.4017226e+00   2.3769531e+00   2.3520702e+00   2.3270761e+00   2.3019726e+00   2.2767618e+00   2.2514457e+00   2.2260262e+00   2.2005054e+00   2.1748852e+00   2.1491677e+00   2.1233547e+00   2.0974484e+00   2.0714506e+00   2.0453633e+00   2.0191886e+00   1.9929283e+00   1.9665845e+00   1.9401591e+00   1.9136541e+00   1.8870714e+00   1.8604130e+00   1.8336808e+00   1.8068768e+00   1.7800030e+00   1.7530612e+00   1.7260535e+00   1.6989817e+00   1.6718477e+00   1.6446536e+00   1.6174012e+00   1.5900924e+00   1.5627292e+00   1.5353134e+00   1.5078470e+00   1.4803319e+00   1.4527699e+00   1.4251629e+00   1.3975129e+00   1.3698217e+00   1.3420912e+00   1.3143233e+00   1.2865197e+00   1.2586824e+00   1.2308133e+00   1.2029141e+00   1.1749868e+00   1.1470331e+00   1.1190548e+00   1.0910539e+00   1.0630321e+00   1.0349912e+00   1.0069331e+00   9.7885951e-01   9.5077225e-01   9.2267309e-01   8.9456383e-01   8.6644624e-01   8.3832208e-01   8.1019311e-01   7.8206108e-01   7.5392773e-01   7.2579481e-01   6.9766405e-01   6.6953717e-01   6.4141587e-01   6.1330188e-01   5.8519690e-01   5.5710261e-01   5.2902070e-01   5.0095285e-01   4.7290073e-01   4.4486601e-01   4.1685032e-01   3.8885533e-01   3.6088267e-01   3.3293397e-01   3.0501085e-01   2.7711492e-01   2.4924779e-01   2.2141105e-01   1.9360630e-01   1.6583510e-01   1.3809904e-01   1.1039966e-01   8.2738534e-02   5.5117192e-02   2.7537172e-02   3.4659737e-18   1.5464239e-17   9.2055707e-09   1.4737208e-08   2.0257823e-08   2.5767451e-08   3.1266029e-08   3.6753493e-08   4.2229780e-08   4.7694825e-08   5.3148565e-08   5.8590933e-08   6.4021864e-08   6.9441294e-08   7.4849155e-08   8.0245380e-08   8.5629904e-08   9.1002658e-08   9.6363574e-08   1.0171258e-07   1.0704962e-07   1.1237461e-07   1.1768749e-07   1.2298819e-07   1.2827663e-07   1.3355275e-07   1.3881647e-07   1.4406773e-07   1.4930645e-07   1.5453255e-07   1.5974597e-07   1.6494663e-07   1.7013446e-07   1.7530938e-07   1.8047132e-07   1.8562020e-07   1.9075595e-07   1.9587848e-07   2.0098774e-07   2.0608363e-07   2.1116608e-07   2.1623501e-07   2.2129034e-07   2.2633199e-07   2.3135989e-07   2.3637395e-07   2.4137409e-07   2.4636024e-07   2.5133230e-07   2.5629020e-07   2.6123385e-07   2.6616317e-07   2.7107808e-07   2.7597850e-07   2.8086433e-07   2.8573549e-07
3.2798402e+00   3.2618118e+00   3.2435887e+00   3.2251726e+00   3.2065656e+00   3.1877696e+00   3.1687865e+00   3.1496182e+00   3.1302668e+00   3.1107341e+00   3.0910221e+00   3.0711327e+00   3.0510680e+00   3.0308298e+00   3.0104202e+00   2.9898410e+00   2.9690944e+00   2.9481821e+00   2.9271062e+00   2.9058687e+00   2.8844716e+00   2.8629167e+00   2.8412062e+00   2.8193419e+00   2.7973259e+00   2.7751601e+00   2.7528466e+00   2.7303872e+00   2.7077840e+00   2.6850390e+00   2.6621541e+00   2.6391314e+00   2.6159728e+00   2.5926802e+00   2.5692558e+00   2.5457015e+00   2.5220192e+00   2.4982109e+00   2.4742787e+00   2.4502245e+00   2.4260503e+00   2.4017581e+00   2.3773498e+00   2.3528275e+00   2.3281931e+00   2.3034485e+00   2.2785959e+00   2.2536371e+00   2.2285741e+00   2.2034089e+00   2.1781435e+00   2.1527798e+00   2.1273198e+00   2.1017655e+00   2.0761187e+00   2.0503816e+00   2.0245560e+00   1.9986439e+00   1.9726472e+00   1.9465679e+00   1.9204080e+00   1.8941693e+00   1.8678538e+00   1.8414635e+00   1.8150003e+00   1.7884661e+00   1.7618628e+00   1.7351925e+00   1.7084568e+00   1.6816579e+00   1.6547976e+00   1.6278778e+00   1.6009004e+00   1.5738673e+00   1.5467805e+00   1.5196417e+00   1.4924529e+00   1.4652160e+00   1.4379328e+00   1.4106052e+00   1.3832351e+00   1.3558243e+00   1.3283747e+00   1.3008882e+00   1.2733665e+00   1.2458115e+00   1.2182251e+00   1.1906091e+00   1.1629653e+00   1.1352956e+00   1.1076016e+00   1.0798853e+00   1.0521485e+00   1.0243928e+00   9.9662024e-01   9.6883243e-01   9.4103119e-01   9.1321829e-01   8.8539549e-01   8.5756455e-01   8.2972721e-01   8.0188521e-01   7.7404029e-01   7.4619417e-01   7.1834857e-01   6.9050521e-01   6.6266579e-01   6.3483200e-01   6.0700554e-01   5.7918809e-01   5.5138133e-01   5.2358692e-01   4.9580653e-01   4.6804180e-01   4.4029438e-01   4.1256591e-01   3.8485801e-01   3.5717231e-01   3.2951041e-01   3.0187393e-01   2.7426445e-01   2.4668357e-01   2.1913286e-01   1.9161389e-01   1.6412822e-01   1.3667742e-01   1.0926301e-01   8.1886549e-02   5.4549548e-02   2.7253528e-02   3.3596925e-18   1.5464254e-17   9.1977339e-09   1.4723164e-08   2.0237544e-08   2.5740911e-08   3.1233201e-08   3.6714352e-08   4.2184299e-08   4.7642980e-08   5.3090330e-08   5.8526284e-08   6.3950777e-08   6.9363743e-08   7.4765118e-08   8.0154834e-08   8.5532825e-08   9.0899025e-08   9.6253364e-08   1.0159578e-07   1.0692619e-07   1.1224454e-07   1.1755076e-07   1.2284478e-07   1.2812652e-07   1.3339591e-07   1.3865290e-07   1.4389739e-07   1.4912933e-07   1.5434864e-07   1.5955525e-07   1.6474908e-07   1.6993006e-07   1.7509812e-07   1.8025318e-07   1.8539517e-07   1.9052401e-07   1.9563962e-07   2.0074194e-07   2.0583088e-07   2.1090636e-07   2.1596831e-07   2.2101666e-07   2.2605131e-07   2.3107220e-07   2.3607923e-07   2.4107234e-07   2.4605144e-07   2.5101645e-07   2.5596729e-07   2.6090387e-07   2.6582611e-07   2.7073393e-07   2.7562725e-07   2.8050598e-07   2.8537003e-07
3.2467783e+00   3.2289274e+00   3.2108836e+00   3.1926488e+00   3.1742251e+00   3.1556142e+00   3.1368182e+00   3.1178389e+00   3.0986782e+00   3.0793382e+00   3.0598207e+00   3.0401276e+00   3.0202610e+00   3.0002227e+00   2.9800147e+00   2.9596389e+00   2.9390973e+00   2.9183918e+00   2.8975244e+00   2.8764971e+00   2.8553117e+00   2.8339703e+00   2.8124748e+00   2.7908272e+00   2.7690294e+00   2.7470834e+00   2.7249912e+00   2.7027547e+00   2.6803758e+00   2.6578567e+00   2.6351991e+00   2.6124051e+00   2.5894767e+00   2.5664158e+00   2.5432244e+00   2.5199044e+00   2.4964578e+00   2.4728867e+00   2.4491928e+00   2.4253783e+00   2.4014451e+00   2.3773951e+00   2.3532304e+00   2.3289528e+00   2.3045643e+00   2.2800669e+00   2.2554625e+00   2.2307532e+00   2.2059408e+00   2.1810273e+00   2.1560147e+00   2.1309049e+00   2.1056998e+00   2.0804015e+00   2.0550117e+00   2.0295326e+00   2.0039660e+00   1.9783138e+00   1.9525781e+00   1.9267606e+00   1.9008634e+00   1.8748884e+00   1.8488374e+00   1.8227125e+00   1.7965155e+00   1.7702483e+00   1.7439128e+00   1.7175110e+00   1.6910447e+00   1.6645159e+00   1.6379264e+00   1.6112781e+00   1.5845729e+00   1.5578127e+00   1.5309994e+00   1.5041347e+00   1.4772207e+00   1.4502591e+00   1.4232518e+00   1.3962007e+00   1.3691076e+00   1.3419743e+00   1.3148027e+00   1.2875947e+00   1.2603520e+00   1.2330764e+00   1.2057698e+00   1.1784340e+00   1.1510709e+00   1.1236821e+00   1.0962694e+00   1.0688348e+00   1.0413799e+00   1.0139065e+00   9.8641648e-01   9.5891146e-01   9.3139326e-01   9.0386362e-01   8.7632429e-01   8.4877699e-01   8.2122346e-01   7.9366542e-01   7.6610459e-01   7.3854267e-01   7.1098137e-01   6.8342239e-01   6.5586740e-01   6.2831808e-01   6.0077612e-01   5.7324318e-01   5.4572091e-01   5.1821096e-01   4.9071498e-01   4.6323459e-01   4.3577144e-01   4.0832713e-01   3.8090328e-01   3.5350149e-01   3.2612336e-01   2.9877046e-01   2.7144439e-01   2.4414671e-01   2.1687898e-01   1.8964275e-01   1.6243958e-01   1.3527099e-01   1.0813851e-01   8.1043672e-02   5.3987973e-02   2.6972919e-02   3.3178530e-18   1.5464257e-17   9.1900020e-09   1.4709312e-08   2.0217547e-08   2.5714741e-08   3.1200833e-08   3.6675760e-08   4.2139459e-08   4.7591866e-08   5.3032918e-08   5.8462550e-08   6.3880697e-08   6.9287294e-08   7.4682276e-08   8.0065577e-08   8.5437131e-08   9.0796871e-08   9.6144729e-08   1.0148064e-07   1.0680453e-07   1.1211634e-07   1.1741599e-07   1.2270342e-07   1.2797856e-07   1.3324133e-07   1.3849168e-07   1.4372951e-07   1.4895478e-07   1.5416739e-07   1.5936729e-07   1.6455439e-07   1.6972862e-07   1.7488992e-07   1.8003821e-07   1.8517341e-07   1.9029544e-07   1.9540424e-07   2.0049972e-07   2.0558181e-07   2.1065044e-07   2.1570552e-07   2.2074698e-07   2.2577474e-07   2.3078872e-07   2.3578884e-07   2.4077502e-07   2.4574719e-07   2.5070525e-07   2.5564913e-07   2.6057875e-07   2.6549402e-07   2.7039487e-07   2.7528120e-07   2.8015293e-07   2.8500999e-07
3.2140559e+00   3.1963806e+00   3.1785144e+00   3.1604592e+00   3.1422169e+00   3.1237893e+00   3.1051785e+00   3.0863863e+00   3.0674146e+00   3.0482653e+00   3.0289404e+00   3.0094417e+00   2.9897712e+00   2.9699308e+00   2.9499224e+00   2.9297480e+00   2.9094095e+00   2.8889088e+00   2.8682478e+00   2.8474285e+00   2.8264529e+00   2.8053228e+00   2.7840402e+00   2.7626071e+00   2.7410253e+00   2.7192969e+00   2.6974238e+00   2.6754079e+00   2.6532512e+00   2.6309556e+00   2.6085231e+00   2.5859556e+00   2.5632551e+00   2.5404235e+00   2.5174627e+00   2.4943748e+00   2.4711616e+00   2.4478251e+00   2.4243673e+00   2.4007901e+00   2.3770955e+00   2.3532853e+00   2.3293616e+00   2.3053262e+00   2.2811812e+00   2.2569285e+00   2.2325699e+00   2.2081075e+00   2.1835432e+00   2.1588788e+00   2.1341165e+00   2.1092580e+00   2.0843053e+00   2.0592603e+00   2.0341250e+00   2.0089012e+00   1.9835910e+00   1.9581961e+00   1.9327186e+00   1.9071603e+00   1.8815232e+00   1.8558091e+00   1.8300200e+00   1.8041577e+00   1.7782241e+00   1.7522212e+00   1.7261508e+00   1.7000149e+00   1.6738152e+00   1.6475537e+00   1.6212322e+00   1.5948526e+00   1.5684168e+00   1.5419267e+00   1.5153840e+00   1.4887907e+00   1.4621486e+00   1.4354595e+00   1.4087252e+00   1.3819477e+00   1.3551288e+00   1.3282701e+00   1.3013737e+00   1.2744412e+00   1.2474746e+00   1.2204755e+00   1.1934459e+00   1.1663874e+00   1.1393019e+00   1.1121911e+00   1.0850569e+00   1.0579010e+00   1.0307251e+00   1.0035311e+00   9.7632061e-01   9.4909544e-01   9.2185731e-01   8.9460797e-01   8.6734912e-01   8.4008250e-01   8.1280980e-01   7.8553274e-01   7.5825302e-01   7.3097232e-01   7.0369233e-01   6.7641472e-01   6.4914117e-01   6.2187333e-01   5.9461287e-01   5.6736142e-01   5.4012064e-01   5.1289215e-01   4.8567757e-01   4.5847853e-01   4.3129663e-01   4.0413347e-01   3.7699066e-01   3.4986977e-01   3.2277239e-01   2.9570007e-01   2.6865439e-01   2.4163690e-01   2.1464914e-01   1.8769265e-01   1.6076895e-01   1.3387957e-01   1.0702602e-01   8.0209800e-02   5.3432400e-02   2.6695308e-02   3.3617376e-18   1.5464245e-17   9.1823732e-09   1.4695650e-08   2.0197825e-08   2.5688935e-08   3.1168917e-08   3.6637709e-08   4.2095248e-08   4.7541471e-08   5.2976315e-08   5.8399715e-08   6.3811607e-08   6.9211927e-08   7.4600608e-08   7.9977586e-08   8.5342795e-08   9.0696169e-08   9.6037640e-08   1.0136714e-07   1.0668460e-07   1.1198996e-07   1.1728315e-07   1.2256409e-07   1.2783272e-07   1.3308897e-07   1.3833277e-07   1.4356405e-07   1.4878273e-07   1.5398875e-07   1.5918203e-07   1.6436251e-07   1.6953010e-07   1.7468474e-07   1.7982635e-07   1.8495486e-07   1.9007019e-07   1.9517227e-07   2.0026102e-07   2.0533637e-07   2.1039824e-07   2.1544656e-07   2.2048124e-07   2.2550221e-07   2.3050938e-07   2.3550269e-07   2.4048205e-07   2.4544738e-07   2.5039861e-07   2.5533564e-07   2.6025840e-07   2.6516681e-07   2.7006078e-07   2.7494024e-07   2.7980509e-07   2.8465525e-07
